ncols        50
nrows        50
xllcorner    477999.500000000000
yllcorner    184700.500000000000
cellsize     10.000000000000
NODATA_value  -9999
 850.95501708984375 849.23199462890625 846.7349853515625 844.489990234375 842.47998046875 840.7130126953125 839.1820068359375 837.0999755859375 834.24200439453125 828.81298828125 827.9000244140625 825.78497314453125 824.49200439453125 822.7030029296875 820.6820068359375 820.22802734375 820.46002197265625 817.27197265625 816.02197265625 813.2230224609375 795.02301025390625 777.7869873046875 774.53997802734375 770.11700439453125 767.0980224609375 758.76300048828125 757.822998046875 757.052001953125 760.79998779296875 772.4000244140625 778.98199462890625 788.6199951171875 799.35498046875 811.19500732421875 818.8280029296875 827.34002685546875 835.49200439453125 839.35302734375 840.2869873046875 840.47998046875 840.3699951171875 840.28497314453125 840.16497802734375 840.80499267578125 841.4119873046875 840.22998046875 839.39501953125 839.1500244140625 839.10302734375 839.447998046875
 850.0980224609375 847.02801513671875 844.25799560546875 842.24200439453125 840.60302734375 839.38299560546875 836.697998046875 833.0570068359375 828.75 827.71502685546875 826.5570068359375 823.17498779296875 821.9019775390625 821.09002685546875 819.7869873046875 819.510009765625 819.25 817.32000732421875 815.60797119140625 808.0980224609375 793.76702880859375 782.38800048828125 777.29998779296875 774.03997802734375 774.6820068359375 760.8599853515625 745.125 752.19500732421875 766.9169921875 774.66497802734375 781.59002685546875 788.406982421875 797.22998046875 808.31500244140625 816.2080078125 824.7919921875 831.07000732421875 834.02001953125 836.5980224609375 836.072998046875 835.34698486328125 835.0050048828125 834.6669921875 834.64501953125 834.885009765625 835.4730224609375 838.0999755859375 837.530029296875 836.219970703125 834.82501220703125
 847.60198974609375 845.72802734375 842.6820068359375 841.10198974609375 838.718017578125 834.0570068359375 830.86700439453125 829.24700927734375 826.54498291015625 824.5150146484375 822.75 821.655029296875 820.4119873046875 819.5419921875 818.91998291015625 818.6300048828125 818.10498046875 816.51702880859375 813.875 803.822998046875 791.30999755859375 784.78997802734375 780.75799560546875 777.58502197265625 770.030029296875 757.64501953125 746.37200927734375 747.41998291015625 758.85198974609375 772.0830078125 780.77001953125 787.572998046875 795.42999267578125 805.844970703125 813.469970703125 819.5999755859375 822.968017578125 826.61199951171875 828.24700927734375 830.19000244140625 829.7919921875 829.27301025390625 829.05499267578125 828.97802734375 829.2080078125 829.83001708984375 830.8480224609375 832.114990234375 833.04998779296875 832.54498291015625
 846.08001708984375 844.0419921875 841.80999755859375 836.96502685546875 833.06298828125 830.27301025390625 826.95501708984375 824.99700927734375 824.2080078125 821.73199462890625 820.32501220703125 818.89697265625 818.9320068359375 818.364990234375 818.40301513671875 818.1099853515625 816.92498779296875 815.84002685546875 814.10198974609375 805.8699951171875 797.2750244140625 789.864990234375 785.3179931640625 774.25 765.5780029296875 755.34698486328125 742.0269775390625 743.54998779296875 757.56500244140625 770.38299560546875 778.92999267578125 788.5880126953125 795.74200439453125 806.65301513671875 810.78997802734375 812.9320068359375 816.00799560546875 818.54498291015625 819.10699462890625 823.572998046875 824.06500244140625 823.60699462890625 823.42498779296875 823.510009765625 823.8699951171875 824.54498291015625 825.760009765625 827.322998046875 827.79498291015625 827.02001953125
 845.2550048828125 842.822998046875 837.58001708984375 833.9169921875 829.3070068359375 826.58502197265625 824.30999755859375 822.57501220703125 820.87799072265625 819.05999755859375 818.7750244140625 818.03997802734375 817.85302734375 817.50799560546875 817.343017578125 816.2249755859375 815.72698974609375 815.09002685546875 808.12799072265625 802.635009765625 800.7550048828125 794.844970703125 787.37799072265625 773.04498291015625 764.469970703125 756.239990234375 744.0150146484375 740.89501953125 750.78302001953125 766.52001953125 778.66998291015625 792.4219970703125 798.60498046875 808.427001953125 808.73199462890625 809.41497802734375 810.218017578125 812.05499267578125 815.114990234375 818.53997802734375 818.73199462890625 817.0269775390625 815.6669921875 816.06500244140625 817.2919921875 818.53497314453125 819.7969970703125 821.0830078125 822.35198974609375 823.61199951171875
 843.32501220703125 837.34002685546875 835.010009765625 830.75799560546875 827.656982421875 825.1199951171875 822.8330078125 820.77001953125 819.29998779296875 818.10198974609375 817.5250244140625 817.03497314453125 816.41998291015625 815.31298828125 814.9429931640625 814.88800048828125 814.822998046875 812.3900146484375 803.5250244140625 796.2550048828125 795.0780029296875 795.405029296875 789.7349853515625 779.510009765625 768.81298828125 758.5679931640625 742.2869873046875 739.75799560546875 749.66497802734375 765.03997802734375 774.63299560546875 788.5999755859375 800.94500732421875 806.3380126953125 806.8380126953125 807.35699462890625 807.989990234375 808.5780029296875 809.6099853515625 810.79498291015625 811.9530029296875 812.96002197265625 813.24200439453125 812.21002197265625 811.12200927734375 811.4320068359375 812.82501220703125 814.5269775390625 817.156982421875 818.18499755859375
 838.13299560546875 836.260009765625 832.135009765625 828.989990234375 826.14801025390625 823.375 821.21502685546875 819.7969970703125 818.3280029296875 817.10302734375 816.7550048828125 816.29498291015625 815.78997802734375 814.9119873046875 814.95001220703125 814.69000244140625 813.9580078125 811.6519775390625 802.364990234375 792.62799072265625 783.58001708984375 782.48199462890625 778.1519775390625 771.718017578125 764.04998779296875 755.08502197265625 742.61700439453125 739.13800048828125 752.2869873046875 766.427001953125 779.76300048828125 792.572998046875 800.989990234375 804.3699951171875 805.0269775390625 805.79498291015625 806.655029296875 807.66998291015625 808.58001708984375 808.74200439453125 807.45001220703125 805.905029296875 804.9320068359375 804.3380126953125 804.2769775390625 805.1619873046875 806.239990234375 807.89501953125 809.260009765625 809.83001708984375
 836.57501220703125 833.114990234375 830.135009765625 827.1619873046875 824.1500244140625 821.6099853515625 819.62799072265625 817.280029296875 816.8800048828125 816.10302734375 815.9730224609375 815.70501708984375 814.6929931640625 814.447998046875 814.75 814.37200927734375 813.030029296875 811.92999267578125 803.84002685546875 796.7969970703125 788.27197265625 772.2919921875 762.20501708984375 758.00299072265625 753.4849853515625 745.780029296875 739.9580078125 741.22698974609375 756.5050048828125 768.03497314453125 792.22998046875 799.7650146484375 801.7449951171875 802.25799560546875 803.4320068359375 804.58001708984375 804.91998291015625 801.9530029296875 801.469970703125 801.218017578125 801.21002197265625 801.34002685546875 801.13800048828125 800.85198974609375 800.86199951171875 801.177001953125 801.94000244140625 803.47698974609375 803.7349853515625 803.9530029296875
 833.781982421875 830.8380126953125 827.844970703125 824.79498291015625 822.07000732421875 819.88299560546875 818.14501953125 816.469970703125 815.447998046875 814.6500244140625 815.08502197265625 815.49200439453125 814.32000732421875 813.85302734375 813.843017578125 814.1929931640625 812.260009765625 808.00299072265625 799.1929931640625 794.29498291015625 780.7869873046875 769.7230224609375 759.35699462890625 749.75299072265625 742.92498779296875 737.44000244140625 736.72802734375 745.5469970703125 767.5050048828125 778.14697265625 798.843017578125 799.8380126953125 800.3800048828125 801.4530029296875 802.98297119140625 802.072998046875 799.12799072265625 798.98297119140625 798.95501708984375 798.9119873046875 798.4630126953125 798.18499755859375 798.094970703125 797.8179931640625 797.86199951171875 797.7449951171875 798.26300048828125 798.12799072265625 798.052001953125 798.60498046875
 831.30499267578125 828.2230224609375 825.0150146484375 822.31298828125 819.9949951171875 818.13299560546875 816.6199951171875 815.4429931640625 814.3800048828125 814.510009765625 814.40802001953125 813.66998291015625 813.344970703125 813.5780029296875 813.83502197265625 813.66497802734375 811.50299072265625 806.218017578125 798.02001953125 790.31500244140625 781.4530029296875 774.1719970703125 762.11700439453125 747.06298828125 739.19500732421875 736.2449951171875 742.4320068359375 752.8499755859375 777.92498779296875 798.38800048828125 798.4949951171875 799.1400146484375 800.156982421875 800.385009765625 798.7130126953125 797.802001953125 797.594970703125 797.344970703125 797.21502685546875 797.07501220703125 796.67498779296875 796.35498046875    796 795.98699951171875 795.4530029296875 794.8699951171875 794.5780029296875 792.28497314453125 792.9169921875 792.72998046875
 829.08001708984375 825.02001953125 822.03497314453125 819.86700439453125 818.0150146484375 816.48699951171875 815.2030029296875 814.29998779296875 814.0419921875 813.843017578125 813.72698974609375 813.218017578125 813.07501220703125 813.00799560546875 813.69500732421875 813.7130126953125 810.89501953125 803.9730224609375 797.33502197265625 792.89300537109375 785.68499755859375 766.20001220703125 754.6719970703125 745.28497314453125 735.2130126953125 739.29998779296875 747.2550048828125 765.37200927734375 786.12799072265625 797.125 797.81298828125 797.4169921875 796.8599853515625 796.99700927734375 797.030029296875 796.843017578125 796.57501220703125 796.34002685546875 796.2080078125 795.885009765625 795.1619873046875 794.781982421875 794.42999267578125 791.68499755859375 789.2750244140625 787.4530029296875 787.14202880859375 787.844970703125 788.19000244140625 788.51702880859375
 824.77801513671875 820.72198486328125 819.18499755859375 817.5469970703125 816.072998046875 814.9530029296875 814.385009765625 813.80999755859375 813.0780029296875 812.94500732421875 812.97802734375 812.6719970703125 812.39300537109375 812.3699951171875 812.45001220703125 812.7449951171875 809.9429931640625 801.06298828125 792.0050048828125 786.2080078125 772.2869873046875 762.82501220703125 753.802001953125 743.16497802734375 734.97698974609375 749.22802734375 756.739990234375 766.177001953125 793.781982421875 797.219970703125 796.52001953125 795.5469970703125 796.156982421875 796.25799560546875 796.17999267578125 795.9320068359375 795.80999755859375 795.76300048828125 795.4630126953125 795.030029296875 794.40802001953125 791.28497314453125 787.35797119140625 785.77001953125 785.25 785.010009765625 784.42999267578125 784.54998779296875 784.80499267578125 784.8499755859375
 819.67498779296875 817.66497802734375 816.44000244140625 815.2230224609375 814.21002197265625 813.50799560546875 813.22198486328125 812.7750244140625 812.239990234375 812.2869873046875 812.16497802734375 812.031982421875 811.97998046875 811.76300048828125 811.74700927734375 811.05999755859375 809.28997802734375 801.42498779296875 792.11700439453125 784.697998046875 775.375 766.3900146484375 750.989990234375 734.89801025390625 751.2550048828125 761.41497802734375 766.364990234375 771.947998046875 792.77301025390625 796.572998046875 795.86199951171875 794.40997314453125 793.24700927734375 795.85699462890625 795.3179931640625 795.177001953125 795.031982421875 795.04498291015625 794.635009765625 794.28997802734375 792.6669921875 786.46502685546875 785.75299072265625 784.75799560546875 783.9169921875 783.16497802734375 782.281982421875    782 781.95001220703125 781.7919921875
 815.843017578125 815.093017578125 814.14697265625 813.41497802734375 812.8330078125 812.54498291015625 812.29498291015625 812.1099853515625 811.9730224609375 811.79998779296875 811.66998291015625 811.3800048828125 811.13800048828125 810.97802734375 810.843017578125 809.219970703125 806.20501708984375 798.4320068359375 792.55499267578125 787.405029296875 777.69500732421875 756.37799072265625 741.58001708984375 733.81298828125 761.280029296875 771.7750244140625 775.489990234375 779.48199462890625 791.9169921875 794.24200439453125 795.28497314453125 794.20501708984375 792.552001953125 791.6300048828125 792.64300537109375 794.60302734375 794.33502197265625 794.32000732421875 794.1719970703125 794.2550048828125 788.44500732421875 786.33001708984375 784.7080078125 783.41998291015625 782.3330078125 781.2969970703125 780.4429931640625 781.2249755859375 779.656982421875 779.51800537109375
 813.780029296875 813.2080078125 812.6300048828125 812.14501953125 812.06500244140625 811.905029296875 811.822998046875 811.53497314453125 811.55999755859375 811.5369873046875 810.75299072265625 810.6719970703125 810.41497802734375 810.45501708984375 809.87799072265625 808.62200927734375 801.7349853515625 794.04998779296875 786.1199951171875 757.9730224609375 744.23199462890625 737.26800537109375 732.9320068359375 737.1820068359375 759.50799560546875 785.0369873046875 784.70001220703125 788.49200439453125 790.28997802734375 790.405029296875 793.27197265625 794.0469970703125 792.62799072265625 791.3800048828125 790.27197265625 789.531982421875 791.07000732421875 792.27001953125 793.2249755859375 789.35699462890625 787.1619873046875 784.97998046875 783.67999267578125 782.260009765625 781.32000732421875 780.68798828125 779.33001708984375 779.2080078125 778.1199951171875 777.59698486328125
 812.635009765625 812.3280029296875 811.86700439453125 811.4429931640625 811.21002197265625 810.655029296875 810.33502197265625 810.2130126953125 810.344970703125 810.2969970703125 810.41497802734375 810.0880126953125 809.125 808.04498291015625 807.656982421875 803.5570068359375 798.2030029296875 790.04998779296875 768.55499267578125 743.7130126953125 733.48199462890625 732.23297119140625 735.656982421875 745.0679931640625 764.677001953125 786.80999755859375 787.56500244140625 787.60699462890625 788.46002197265625 788.86199951171875 788.49200439453125 788.78497314453125 788.39202880859375 787.88299560546875 788.031982421875 788.2919921875 787.35699462890625 786.41998291015625 786.364990234375 787.69500732421875 783.99200439453125 783.4530029296875 782.302001953125 780.76300048828125 779.86700439453125 778.92498779296875 777.9849853515625 777.28497314453125 776.9580078125 776.6669921875
 808.54498291015625 808.6719970703125 808.6719970703125 808.655029296875 808.780029296875 809.3280029296875 809.4949951171875 809.62200927734375 809.4000244140625 809.364990234375 809.1300048828125 808.80499267578125 808.155029296875 806.6500244140625 805.947998046875 797.44500732421875 793.58502197265625 776.41497802734375 753.468017578125 732.75 731.468017578125 741.3800048828125 747.08502197265625 755.4749755859375 779.6929931640625 787.05499267578125 786.96502685546875 786.63299560546875 786.58502197265625 786.802001953125 786.86199951171875 786.55999755859375 786.1199951171875 785.6400146484375 785.1300048828125 784.61199951171875 784.16302490234375 784.75799560546875 784.45001220703125 783.5250244140625    782 782.14697265625 781.58502197265625 779.91497802734375 778.6519775390625 777.9429931640625 777.16998291015625 776.55499267578125 775.968017578125 775.39300537109375
 807.593017578125 807.54498291015625 807.60699462890625 807.73699951171875 807.8070068359375 807.8330078125 808.60198974609375 808.78997802734375 808.572998046875 808.469970703125 808.5469970703125 808.19500732421875 807.68798828125 805.82501220703125 800.7550048828125 791.197998046875 776.64300537109375 758.99200439453125 742.0570068359375 732.62200927734375 732.4530029296875 752.531982421875 758.20501708984375 781.70501708984375 784.2550048828125 785.04998779296875 785.29498291015625 785.34002685546875 785.23199462890625 785.11700439453125 785.06500244140625 784.97998046875 784.69500732421875 784.3480224609375 783.77001953125 783.05999755859375 782.41998291015625 782.1820068359375 783.0830078125 782.21002197265625 781.51702880859375 780.5780029296875 780.405029296875 779.0469970703125 778.093017578125 777.34002685546875 776.32000732421875 775.75 775.260009765625 773.9000244140625
 806.3480224609375 806.3380126953125 806.30499267578125 806.3699951171875 806.510009765625 806.7869873046875 807.26800537109375 807.530029296875 807.53497314453125 807.614990234375 807.66497802734375 807.28997802734375 806.7769775390625 804.947998046875 799.9730224609375 790.19000244140625 775.094970703125 759.072998046875 752.76800537109375 733.593017578125 730.48699951171875 756.0679931640625 769.71002197265625 780.91497802734375 783.1669921875 783.1099853515625 783.28497314453125 783.47998046875 783.72198486328125 783.88800048828125 783.68798828125 783.3900146484375 782.97998046875 782.48699951171875 781.76300048828125 780.99700927734375 780.4429931640625 780.2130126953125 780.14697265625 780.26800537109375 780.49200439453125 779.6719970703125 778.56500244140625 777.29998779296875 777.697998046875 776.9320068359375 775.344970703125 775.10498046875 773.82501220703125 771.385009765625
 803.6400146484375 804.12799072265625 804.17999267578125 804.51800537109375 804.83502197265625 805.37200927734375 805.4849853515625 805.58001708984375 805.6300048828125 805.84197998046875 805.9000244140625 805.8599853515625 805.64501953125 804.00299072265625 800.6929931640625 793.83001708984375 782.90997314453125 770.20501708984375 757.57000732421875 727.2130126953125 727.19000244140625 752.82501220703125 763.155029296875 775.7249755859375 782.64697265625 782.114990234375 781.9849853515625 782.12799072265625 782.3499755859375 782.53497314453125 782.59002685546875 782.343017578125 781.780029296875 780.968017578125 780.06500244140625 779.41998291015625 779.05999755859375 776.43499755859375 774.5679931640625 773.86700439453125 774.10699462890625 773.905029296875 774.31298828125 775.7869873046875 775.5679931640625 774.39501953125 772.95501708984375 771.719970703125 770.50799560546875 769.0369873046875
 800.010009765625 800.4749755859375 801.10699462890625 801.77001953125 802.52301025390625 802.88800048828125 803.83502197265625 803.85498046875 803.9849853515625 804.05999755859375 803.22198486328125 803.14300537109375 802.75299072265625 801.7750244140625 799.4119873046875 793.4849853515625 785.02197265625 771.07501220703125 746.5880126953125 727.0980224609375 730.8330078125 749.37799072265625 759.802001953125 770.0419921875 782.2030029296875 781.510009765625 781.22802734375 781.14801025390625 781.0050048828125 780.8380126953125 780.84002685546875 780.72998046875 780.16998291015625 779.405029296875 778.7969970703125 777.7349853515625 773.4849853515625 770.95501708984375 769.45501708984375 768.70501708984375 768.62200927734375 768.32000732421875 767.84002685546875 768.74200439453125 767.70501708984375 767.26800537109375 768.072998046875 768.6300048828125 769.875 769.05999755859375
 796.54498291015625 797.0250244140625 797.69000244140625 798.31500244140625 798.87799072265625 799.28497314453125 800.0780029296875 800.02197265625 800.54998779296875 801.094970703125 800.50799560546875 801.41497802734375 800.510009765625 799.0150146484375 796.0269775390625 790.70001220703125 784.42498779296875 765.2869873046875 736.26300048828125 725.9530029296875 728.74200439453125 743.76300048828125 752.00799560546875 763.84002685546875 772.7650146484375    781 780.405029296875 779.79498291015625 778.218017578125 776.36700439453125 775.69000244140625 776.68798828125 778.072998046875 778.02197265625 776.5780029296875 772.54498291015625 769.989990234375 767.510009765625 765.67999267578125 764.625 763.8599853515625 763.489990234375 763.68798828125 763.030029296875 762.21502685546875 760.72998046875 760.625 761.093017578125 763.530029296875 764.19000244140625
 792.37200927734375 792.73297119140625 793.2030029296875 794.010009765625 794.87200927734375 795.68499755859375 796.52197265625 797.2919921875 797.625 797.530029296875 797.9749755859375 797.7230224609375 797.052001953125 795.86700439453125 792.66998291015625 783.46502685546875 766.10498046875 754.5150146484375 727.87799072265625 726.04498291015625 730.072998046875 736.0830078125 746.80999755859375 754.572998046875 765.52301025390625 772.72802734375 777.95001220703125 775.302001953125 771.26800537109375 768.9849853515625 767.99700927734375 769.47802734375 772.20501708984375 774.97698974609375 772.42999267578125 769.280029296875 766.42999267578125 763.61199951171875 762.0419921875 761.05999755859375 760.21002197265625 759.8070068359375 759.9730224609375 758.0250244140625 757.7080078125 758.18798828125 757.86199951171875 758.6820068359375 759.68798828125 760.843017578125
 790.739990234375 790.3380126953125 790.55499267578125 790.9949951171875 792.61199951171875 793.46002197265625 793.7249755859375 793.9019775390625 794.4019775390625 794.70001220703125 794.89697265625 794.67498779296875 794.04998779296875 793.1300048828125 791.8800048828125 777.85797119140625 757.5780029296875 738.8380126953125 729.7449951171875 725.06500244140625 728.969970703125 730.4849853515625 739.0679931640625 741.85302734375 740.197998046875 760.62799072265625 772.43798828125 769.7249755859375 762.17999267578125 759.51300048828125 758.62799072265625 761.43499755859375 767.0150146484375 769.9749755859375 767.8800048828125 764.5419921875 761.53497314453125 760.88800048828125 760.06500244140625 758.625 756.5570068359375 754.0570068359375 752.9169921875 756.1669921875 756.98699951171875 757.27301025390625 757.3070068359375 756.1820068359375 755.7030029296875 755.88299560546875
 788.1619873046875 788.60302734375 788.83502197265625 788.968017578125 789.3699951171875 790.2130126953125 790.64501953125 791.19000244140625 792.1669921875 793.01300048828125 792.1519775390625 791.7919921875 791.219970703125 790.55499267578125 788.97198486328125 776.5999755859375 754.3070068359375 742.947998046875 734.1199951171875 725.86700439453125 724.9530029296875 727.70001220703125 728.87799072265625 730.302001953125 731.45001220703125 736.41998291015625 749.9580078125 762.9630126953125 758.0269775390625 748.03302001953125 749.6669921875 755.08502197265625 761.75299072265625 763.76300048828125 761.83001708984375 759.94500732421875 759.30499267578125 756.5050048828125 752.47198486328125 751.031982421875 750.822998046875 750.32000732421875 750.35198974609375 751.02197265625 751.34002685546875 752.30999755859375 752.8330078125 754.17999267578125 754.46502685546875 754.57000732421875
 785.572998046875 786.572998046875 786.97802734375 786.74700927734375 786.5369873046875 786.55999755859375 787.48297119140625 788.1500244140625 788.81298828125 789.03997802734375 789.35302734375 789.11700439453125 788.89697265625 787.719970703125 783.51800537109375 770.0830078125 757.7030029296875 749.37799072265625 741.04998779296875 733.2969970703125 724.927001953125 723.77197265625 723.35699462890625 727.52197265625 728.56298828125 728.4219970703125 731.77301025390625 733.94500732421875 732.6099853515625 733.07501220703125 740.4000244140625 750.906982421875 756.4849853515625 757.12200927734375 758.3179931640625 756.3380126953125 751.91998291015625 750.76800537109375 750.5780029296875 750.55499267578125 749.66497802734375 750.29998779296875 749.614990234375 750.64801025390625 751.280029296875 750.41998291015625 751.06500244140625 751.927001953125 751.9320068359375 752.10797119140625
 781.281982421875 782.364990234375 783.405029296875 782.86700439453125 782.135009765625 782.59002685546875 783.39501953125 784.72198486328125 785.63800048828125 786.56298828125 786.59002685546875 785.57000732421875 784.57000732421875 783.0980224609375 779.447998046875 770.07000732421875 763.43798828125 757.5419921875 750.99200439453125 742.114990234375 731.155029296875 726.8900146484375 722.94000244140625 722.17498779296875 721.69500732421875 722.7919921875 725.88299560546875 724.9949951171875 723.822998046875 723.625 726.593017578125 741.9320068359375 747.65997314453125 749.5830078125 751.781982421875 750.95001220703125 750.38299560546875    750 750.24700927734375 749.406982421875 748.80499267578125 748.656982421875 748.80499267578125 748.8070068359375 748.8499755859375 749.0880126953125 749.531982421875 750.22998046875 750.52001953125 750.95001220703125
 777.43798828125 777.780029296875 778.5050048828125 778.0250244140625 777.75299072265625 778.64501953125 778.8179931640625 780.23199462890625 782.06298828125 782.89501953125 782.7230224609375 782.1820068359375 781.0150146484375 779.48297119140625    778 776.5570068359375 772.0980224609375 765.5999755859375 757.2349853515625 750.1099853515625 743.593017578125 734.531982421875 730.16497802734375 725.35797119140625 723.77301025390625 721.6199951171875 721.30999755859375 721.1099853515625 720.8070068359375 720.83502197265625 722.16497802734375 726.7550048828125 733.875 741.19500732421875 750.76300048828125 750.61199951171875 749.91497802734375 749.135009765625 748.82000732421875 748.49700927734375 748.12200927734375 747.94000244140625 747.843017578125 747.7650146484375 747.9530029296875 748.21502685546875 748.62799072265625 749.08502197265625 749.35699462890625 749.843017578125
 775.635009765625 775.31500244140625 775.47698974609375 775.32501220703125 775.2550048828125 775.343017578125 775.59002685546875 776.1929931640625 777.2230224609375 778.22998046875 778.4219970703125 778.25 778.12200927734375 777.50799560546875 776.64300537109375 775.57501220703125 773.635009765625 771.25299072265625 768.8070068359375 760.22802734375 752.01300048828125 743.16998291015625 738.1669921875 732.74200439453125 732.3800048828125 730.32501220703125 725.8499755859375 724.052001953125 723.54498291015625 722.4119873046875 720.34002685546875 720.24700927734375 722.6099853515625 731.2650146484375 740.05499267578125 748.989990234375 749.36199951171875 748.7230224609375 747.95501708984375 747.47698974609375 747.2080078125 746.8330078125 746.78997802734375 747.2750244140625 747.4849853515625 747.2080078125 747.74200439453125 748.00799560546875 748.27001953125 748.52301025390625
 772.6820068359375 773.0679931640625 773.5830078125 774.08001708984375 774.47998046875 774.36199951171875 774.822998046875 775.07501220703125 775.33502197265625 775.7750244140625 776.42498779296875 777.0880126953125 776.906982421875 776.36199951171875 776.02001953125 774.572998046875 772.697998046875 770.64501953125 768.6400146484375 767.07501220703125 761.375 753.6719970703125 747.25799560546875 741.718017578125 740.4580078125 737.5050048828125 733.56500244140625 731.177001953125 726.947998046875 723.2750244140625 722.99200439453125 717.7449951171875 717.44500732421875 721.87799072265625 728.27001953125 735.69000244140625 741.0880126953125 742.7550048828125 746.41998291015625 746.25799560546875 745.93798828125 745.5880126953125 745.7919921875 745.53997802734375 745.4169921875 745.60699462890625 746.65997314453125 747.14801025390625 747.1199951171875 746.905029296875
 772.25299072265625 772.3499755859375 772.6500244140625 773.218017578125 773.46502685546875 773.8499755859375 774.114990234375 774.52001953125 774.8480224609375 775.1619873046875 775.885009765625 776.24700927734375 775.7030029296875 775.68499755859375 774.82501220703125 773.24700927734375 771.469970703125 769.5250244140625 768.04998779296875 766.4949951171875 764.82501220703125 763.19000244140625 756.614990234375 751.81500244140625 747.906982421875 743.76300048828125 740.4169921875 738.1820068359375 732.8900146484375 728.88702392578125 722.88299560546875 721.219970703125 717.27001953125 718.2030029296875 721.5679931640625 723.6820068359375 723.4749755859375 734.72998046875 745.01800537109375 745.01800537109375 744.7230224609375 744.7130126953125 744.50299072265625 745.1300048828125 745.14501953125 745.1669921875 745.92498779296875 746.7249755859375 746.34002685546875 744.8070068359375
 769.4749755859375 771.85302734375 772.29998779296875 772.88800048828125 773.0880126953125 773.30499267578125 773.53997802734375 773.99700927734375 774.39300537109375 774.989990234375 775.46502685546875 775.2919921875 775.239990234375 774.68798828125 773.37799072265625 771.77001953125 770.0269775390625 768.4749755859375 767.3800048828125 765.8900146484375 764.7130126953125    764 762.40997314453125 758.92999267578125 755.531982421875 749.88299560546875 746.3499755859375 743.7650146484375 738.75 734.5369873046875 729.46697998046875 722.718017578125 721.36700439453125 716.27197265625 716.23699951171875 720.843017578125 720.9749755859375 721.99200439453125 735.3900146484375 741.8330078125 743.89202880859375 743.5469970703125 742.7349853515625 743.76300048828125 744.7230224609375 744.52197265625 744.38299560546875 744.41497802734375 743.5369873046875 741.677001953125
 768.239990234375    771 771.93499755859375 772.406982421875 772.58001708984375 773.12799072265625 773.26800537109375 773.4119873046875 773.78497314453125 774.135009765625 774.75299072265625 774.53997802734375 774.281982421875 773.010009765625 771.74700927734375 770.16998291015625 768.6099853515625 767.28497314453125 766.42498779296875 765.28997802734375 764.9119873046875 764.76202392578125 767.4580078125 766.2230224609375 763.00799560546875 758.2650146484375 754.17498779296875 750.3499755859375 747.74200439453125 741.98699951171875 735.3599853515625 727.4849853515625 721.84002685546875 720.1400146484375 715.844970703125 715.405029296875 719.47198486328125 719.3800048828125 719.5050048828125 729.82000732421875 740.83001708984375 738.70501708984375 736.00799560546875 738.3330078125 740.322998046875 741.9429931640625 742.8330078125 742.697998046875 740.27197265625 738.635009765625
 766.239990234375 768.70501708984375 771.0679931640625 771.71002197265625 772.23699951171875 772.76800537109375 772.9949951171875 773.1500244140625 773.2249755859375 773.052001953125 773.04998779296875 773.35797119140625 772.5050048828125 771.6099853515625 770.27301025390625 768.69000244140625 767.239990234375 766.1500244140625 765.34002685546875 764.7769775390625 764.96502685546875 765.1500244140625 769.29498291015625 767.71002197265625 767.53997802734375 765.1719970703125 761.64501953125 757.95501708984375 754.55499267578125 749.822998046875 741.44500732421875 736.34002685546875 727.625 723.1300048828125 719.80999755859375 714.75 714.77197265625 718.06298828125 719.3070068359375 719.6619873046875 725.0679931640625 729.0999755859375 729.2750244140625 732.6820068359375 736.83001708984375 738.05999755859375 738.57501220703125 737.66497802734375 736.62200927734375 736.56298828125
 764.89501953125 766.97998046875 769.781982421875 770.8900146484375 771.24200439453125 771.6820068359375 772.0980224609375 772.219970703125 772.07000732421875 771.9530029296875 771.2919921875 770.85699462890625 770.969970703125 770.71002197265625 769.24200439453125 767.4320068359375 766.03497314453125 765.0780029296875 764.4949951171875 764.2750244140625 764.572998046875 764.6929931640625 769.39801025390625 767.405029296875 767.385009765625 766.85498046875 766.135009765625 764.9019775390625 760.968017578125 755.5780029296875 749.4320068359375 744.2919921875 736.9119873046875 731.4949951171875 723.6820068359375 720.4219970703125 714.40997314453125 713.39501953125 717.35302734375 718.1719970703125 719.322998046875 719.406982421875 723.7230224609375 727.56298828125 731.3480224609375 734.21502685546875 734.197998046875 733.4429931640625 732.82000732421875 731.3179931640625
 764.0269775390625 766.14501953125 768.2230224609375 769.364990234375 770.3070068359375 770.5570068359375 770.81500244140625 770.86199951171875 770.56298828125 770.219970703125 769.844970703125 769.280029296875 768.7650146484375 767.81298828125 766.125 766.62799072265625 765.37799072265625 764.40997314453125 763.78997802734375 763.71002197265625 763.82501220703125 764.61297607421875 768.9320068359375 767.19000244140625 767.23699951171875 766.79998779296875 765.9019775390625 764.5250244140625 763.54998779296875 761.22998046875 755.44000244140625 749.36700439453125 743.2349853515625 736.60198974609375 729.656982421875 723.33502197265625 718.405029296875 713.1099853515625 713.58001708984375 717.0570068359375 718.9320068359375 719.17498779296875 719.41998291015625 723.61700439453125 728.24200439453125 729.8699951171875 729.27301025390625 728.968017578125 728.08001708984375 725.17999267578125
 763.89801025390625 764.9630126953125 766.22998046875 768.0419921875 768.2249755859375 768.60302734375 769.1400146484375 769.10498046875 769.072998046875 769.03997802734375 768.8280029296875 768.25 767.405029296875 765.4730224609375  763.5 763.5250244140625 762.70001220703125 764.0419921875 763.4019775390625 763.156982421875 763.19500732421875 764.375 768.48699951171875 766.93499755859375 766.86700439453125 766.510009765625 765.68798828125 764.656982421875 763.11700439453125 762.1500244140625 758.89801025390625 754.22698974609375 748.67498779296875 741.2769775390625 734.1199951171875 728.1619873046875 722.91998291015625 718.5880126953125 712.7030029296875 711.468017578125 718.82501220703125 719.02001953125 719.14501953125 720.5269775390625 724.7769775390625 724.7919921875 724.8480224609375 725.2650146484375 724.12799072265625 726.14501953125
 761.98297119140625 762.80499267578125 763.5999755859375 764.38800048828125 764.947998046875 765.8280029296875 766.9949951171875 767.78497314453125 768.197998046875 768.28497314453125 767.82501220703125 765.7869873046875 763.01300048828125 761.4630126953125 761.5570068359375 761.29498291015625 761.5150146484375 761.10699462890625 760.32000732421875 762.5880126953125 762.0150146484375 764.67999267578125 767.780029296875 766.6500244140625 766.4429931640625 766.07501220703125 765.4219970703125 764.2249755859375 762.7650146484375 761.5999755859375 761.0679931640625 754.64801025390625 750.02001953125 744.65997314453125 740.07000732421875 734.02197265625 729.05499267578125 723.322998046875 717.19500732421875 710.614990234375 711.83001708984375 718.60198974609375 719.2869873046875 719.6199951171875 719.802001953125 721.35699462890625 722.593017578125 722.489990234375 724.1820068359375 727.55999755859375
 759.135009765625 759.406982421875 759.81500244140625 760.344970703125 760.9749755859375 761.885009765625 763.07000732421875 765.1669921875 764.27301025390625 763.52001953125 763.30999755859375 762.15301513671875 760.8900146484375 760.67498779296875 760.76300048828125 760.5269775390625 760.8070068359375 760.89202880859375 760.5150146484375 759.64697265625 761.28497314453125 765.20001220703125 766.82501220703125 766.16998291015625 766.052001953125 765.4320068359375 764.656982421875 763.58502197265625 762.0999755859375 761.12799072265625 760.35498046875 756.885009765625 750.9119873046875 745.84002685546875 740.156982421875 736.19000244140625 731.04498291015625 724.12799072265625 721.2230224609375 714.33502197265625 709.97698974609375 710.1669921875 719.26800537109375 717.92999267578125 719.4000244140625 719.6099853515625 720.22998046875 722.6099853515625 723.76300048828125 731.04998779296875
 755.11798095703125 755.135009765625 755.31500244140625 755.69000244140625 756.35498046875 757.21502685546875 758.29998779296875 759.90997314453125 758.42999267578125 758.79998779296875 758.93499755859375 759.12799072265625 759.4119873046875 759.67498779296875 759.86199951171875 759.67999267578125 759.58502197265625 759.81298828125 759.7030029296875 756.81298828125 760.572998046875 765.88800048828125 765.7969970703125 765.30499267578125 765.0999755859375 764.56298828125 763.6300048828125 762.2769775390625 761.26300048828125 760.4849853515625 759.5570068359375 757.85498046875 751.69000244140625 745.89697265625 739.8800048828125 735.7969970703125 727.13800048828125 723.3380126953125 721.36199951171875 715.156982421875 713.66998291015625 709.61199951171875 715.88299560546875 716.35198974609375 719.66497802734375 719.60498046875 720.25799560546875 720.6820068359375 723.11199951171875 727.32501220703125
 750.3070068359375 750.31298828125 750.5050048828125 750.92498779296875 751.39501953125 752.14501953125 752.97802734375 753.6300048828125 752.54498291015625 752.8070068359375 753.5880126953125 754.49200439453125 757.49200439453125 758.6400146484375 758.87799072265625 758.93499755859375 758.4949951171875  758.5 757.89801025390625 755.98199462890625 757.57501220703125 762.75 763.905029296875 763.96002197265625 763.71002197265625 762.9949951171875 761.79998779296875 760.90301513671875 760.1400146484375 759.28997802734375 757.95501708984375 756.135009765625 751.24200439453125 743.385009765625 737.8800048828125 733.20501708984375 726.280029296875 721.85498046875 717.4630126953125 715.7030029296875 713.71502685546875 712.35198974609375 710.1619873046875 718.072998046875 718.87200927734375 719.39697265625 719.51800537109375 719.95001220703125 720.9019775390625 722.8380126953125
 745.30999755859375 745.2750244140625 745.64501953125 745.9429931640625 746.447998046875 747.50299072265625 747.80999755859375 747.84698486328125 745.11199951171875 745.8380126953125 747.95501708984375 749.4749755859375 750.61199951171875 751.89300537109375 752.65802001953125 753.70501708984375 753.697998046875 752.1619873046875 752.2650146484375 752.0250244140625 752.36700439453125 756.4849853515625 761.343017578125 761.5419921875 761.61700439453125 760.844970703125    760 758.8900146484375 757.82501220703125 756.8179931640625 755.23199462890625 751.614990234375 746.375 740.01300048828125 736.7230224609375 729.42498779296875 723.45501708984375 720.53302001953125 716.53497314453125 714.15997314453125 713.4320068359375 712.7349853515625 708.73699951171875 716.23699951171875 718.25 718.79498291015625 718.4949951171875 718.655029296875 718.8330078125 721.4169921875
 740.9749755859375 740.66998291015625 740.822998046875 740.99700927734375 741.44500732421875 742.68499755859375 743.32000732421875 742.9730224609375 741.83001708984375 743.37799072265625 743.7750244140625 744.39801025390625 744.5880126953125 745.17498779296875 746.17999267578125 748.3179931640625 748.04498291015625 747.89501953125 746.4169921875 746.75 749.71697998046875 749.78997802734375 753.02197265625 755.19000244140625 755.99200439453125 756.3900146484375 757.14300537109375 757.2650146484375 754.3800048828125 751.7249755859375 748.7349853515625 745.08001708984375 740.697998046875 738.135009765625 732.5469970703125 726.56298828125 721.92999267578125 717.85198974609375 713.71002197265625 713.3330078125 713.030029296875 712.030029296875 708.594970703125 714.34002685546875 717.2750244140625 718.2030029296875 717.87200927734375 718.1929931640625 718.4320068359375 718.46002197265625
 735.885009765625 736.9000244140625 736.98699951171875 737.093017578125 737.405029296875 737.61199951171875 738.01800537109375 738.70001220703125 736.9119873046875 738.01300048828125 737.1669921875 736.281982421875 736.35498046875 737.97998046875 739.8330078125 742.49200439453125 741.844970703125 741.01300048828125 740.17999267578125 740.0830078125 742.719970703125 745.53497314453125 746.4630126953125 746.8900146484375 748.89300537109375 749.385009765625 749.22998046875 748.37200927734375 747.03997802734375 745.093017578125 742.49200439453125 740.69000244140625 738.4320068359375 733.24700927734375 728.1719970703125 722.7550048828125 721.79498291015625 716.3599853515625 712.6400146484375 711.10699462890625 712.02197265625 711.77301025390625 708.843017578125 713.655029296875 715.2650146484375 715.92999267578125 717.0780029296875 716.80499267578125 717.62200927734375 718.10302734375
 728.3179931640625 728.6820068359375 729.0150146484375 729.364990234375 730.29498291015625 731.594970703125 731.27001953125 731.52001953125 731.38299560546875 731.0469970703125 730.12799072265625 729.55999755859375 729.28997802734375 729.45501708984375 731.56298828125 735.39501953125 735.18798828125 733.6400146484375 733.54498291015625 734.17498779296875 735.82501220703125 737.83001708984375 739.8330078125 741.8900146484375 741.989990234375 742.95001220703125 743.73199462890625 742.864990234375 741.85498046875 740.052001953125 736.87200927734375 733.95501708984375 731.4849853515625 726.9320068359375 723.3499755859375 722.35498046875 718.94000244140625 714.93798828125 711.96502685546875 711.0679931640625 711.14501953125 711.4730224609375 708.60797119140625 713.0250244140625 714.97698974609375 715.552001953125 715.75299072265625 715.8070068359375 715.83001708984375 715.531982421875
 724.885009765625    724 723.63299560546875 723.32000732421875 724.01300048828125 726.1300048828125 725.0880126953125 725.2449951171875 726.322998046875 724.62200927734375 723.7919921875 723.8280029296875 723.45501708984375 722.75299072265625 722.760009765625 724.57501220703125 726.23699951171875 727.0880126953125 727.71502685546875 729.04498291015625 730.239990234375 731.4169921875 732.66998291015625 733.8280029296875 735.1820068359375 735.96002197265625 736.02001953125 735.3900146484375 734.36700439453125 732.4949951171875 730.1199951171875 727.05499267578125 724.3330078125 721.905029296875 719.77301025390625 719.42999267578125 714.93499755859375 713.77197265625 710.9019775390625 711.14202880859375 711.06500244140625 711.1619873046875 709.125 712.468017578125 714.4730224609375 714.88299560546875 715.906982421875 715.89501953125 715.0830078125 715.302001953125
 721.9849853515625 721.218017578125 720.7449951171875 720.4000244140625 720.1669921875 719.88800048828125 720.91998291015625 721.2449951171875 721.20501708984375 720.8330078125 719.69000244140625 718.844970703125 718.03497314453125 717.6300048828125 716.43798828125 716.2249755859375 717.489990234375 719.46002197265625 721.4119873046875 723.2969970703125 724.74700927734375 725.61700439453125 726.68798828125 727.302001953125 728.46502685546875 728.655029296875 728.48199462890625 727.9530029296875 726.96002197265625 726.0679931640625 724.3179931640625 720.989990234375 720.79498291015625 719.593017578125 719.197998046875 716.91998291015625 713.5679931640625 713.6519775390625 710.7969970703125 710.74200439453125 710.70001220703125 710.99700927734375 709.0780029296875 711.81500244140625 712.96502685546875 712.52301025390625 715.968017578125 715.43499755859375 714.552001953125 714.87200927734375
 719.28997802734375 718.53497314453125 718.10699462890625 717.7650146484375 717.2449951171875 716.8280029296875 716.89501953125 716.70001220703125 716.48699951171875 716.25 714.927001953125 714.01702880859375 713.16998291015625 712.635009765625 712.4320068359375 712.60699462890625 713.197998046875 714.76800537109375 716.60302734375 717.656982421875 718.86199951171875 719.69000244140625 720.9849853515625 722.54498291015625 723.6929931640625 724.94000244140625 724.7249755859375 724.177001953125 723.28997802734375 723.27301025390625 721.56500244140625 719.155029296875 718.57000732421875 717.95501708984375 716.14300537109375 715.3070068359375 712.7349853515625 710.33001708984375 710.4429931640625 710.322998046875 710.406982421875 710.92498779296875 707.11199951171875 711.69500732421875 711.94500732421875 712.31500244140625 712.82000732421875 713.530029296875 714.177001953125 714.66998291015625
 715.86700439453125 715.4580078125 715.4019775390625 715.2030029296875 714.75799560546875 713.87799072265625 713.28997802734375 712.71502685546875 712.00799560546875 711.9019775390625 710.78497314453125 709.677001953125 708.4219970703125 708.344970703125 708.72802734375 709.67999267578125 710.80999755859375 711.4530029296875 712.8380126953125 713.60699462890625 714.22998046875 714.96502685546875 715.89501953125 717.8070068359375 719.34002685546875 722.5419921875 722.4320068359375 721.43798828125 719.7750244140625 720.4730224609375 718.8699951171875 718.072998046875 715.62200927734375 714.9580078125 714.2550048828125 713.0830078125 711.36297607421875 710.06298828125 709.98199462890625 710.12799072265625 710.12799072265625 710.469970703125 706.218017578125 711.31500244140625 711.59002685546875 712.69500732421875 713.02001953125 713.6519775390625 714.20501708984375 714.343017578125
 712.52001953125 712.4429931640625 712.594970703125 712.44000244140625 711.89501953125 711.1400146484375 710.35699462890625 709.530029296875 708.594970703125 708.052001953125 707.510009765625 706.51300048828125 704.39501953125 704.22198486328125 704.14697265625 704.70501708984375 705.75 707.74200439453125 709.39697265625 710.19000244140625 709.89300537109375 709.718017578125 709.6300048828125 710.59698486328125 713.71697998046875 715.10699462890625 714.68499755859375 714.7030029296875 713.77001953125 713.64801025390625 714.35498046875 712.50799560546875 711.92498779296875 711.67498779296875 712.781982421875 710.4019775390625 709.7550048828125 709.57000732421875 709.8699951171875 709.91998291015625 709.63800048828125 709.81298828125 705.97802734375 710.71002197265625 713.9630126953125 713.52001953125 713.4949951171875 713.93798828125 714.02801513671875 713.59002685546875
