ncols        167
nrows        32
xllcorner    480119.5
yllcorner    189150.5
cellsize     10.000000000000
NODATA_value  -9999
1398.824951171875 1400.114990234375 1405.5469970703125 1410.125 1414.802001953125 1420.2750244140625 1426.113037109375 1431.14501953125 1434.8330078125 1438.324951171875 1442.843017578125 1448.300048828125 1453.824951171875 1457.7550048828125 1464.123046875 1465.625 1470.5849609375 1473.7230224609375 1476.7099609375 1478.241943359375 1481.550048828125 1488.5799560546875 1496.68994140625 1504.7449951171875 1510.4969482421875 1514.9580078125 1521.4169921875 1528.22802734375 1533.156982421875 1537.886962890625 1541.656982421875 1544.9599609375 1547.739990234375 1549.6650390625 1553.7249755859375 1555.748046875 1557.72802734375 1561.6929931640625 1565.2449951171875 1568.35498046875 1571.1080322265625 1576.844970703125 1581.719970703125 1589.0419921875 1592.510009765625 1596.366943359375 1599.010009765625 1601.25 1602.135009765625 1603.552001953125 1605.52197265625 1608.510009765625 1611.260009765625 1612.06494140625 1617.1800537109375 1624.68505859375 1634.1619873046875 1637.0679931640625 1640.4150390625 1644.248046875 1646.1099853515625 1647.68505859375 1648.0570068359375 1647.47802734375 1646.9630126953125 1646.7449951171875 1646.8399658203125 1647.7650146484375 1648.8699951171875 1648.758056640625 1649.7550048828125 1650.4949951171875 1651.4530029296875 1653.344970703125 1656.1820068359375 1658.905029296875 1662.8800048828125 1667.6719970703125 1672 1675.623046875 1679.39501953125 1683.4429931640625 1686.4749755859375 1689.9449462890625 1694.0980224609375 1697.8499755859375 1701.72802734375 1705.8800048828125 1709.7679443359375 1714.0570068359375 1718.06298828125 1721.9949951171875 1725.7320556640625 1729.4320068359375 1733.9200439453125 1737.237060546875 1739.550048828125 1742.6600341796875 1744.4100341796875 1746.552001953125 1749.0780029296875 1751.0780029296875 1752.405029296875 1753.5830078125 1754.5450439453125 1755.625 1756.3480224609375 1757.2969970703125 1757.7850341796875 1758.2750244140625 1758.1949462890625 1758.074951171875 1757.8470458984375 1756.302001953125 1754.427001953125 1752.510009765625 1746.876953125 1740.5679931640625 1734.1199951171875 1725.06494140625 1716.501953125 1709.449951171875 1703.8699951171875 1696.0849609375 1687.0550537109375 1678.8299560546875 1671.3900146484375 1665.300048828125 1659.385009765625 1653.52001953125 1647.56005859375 1640.447998046875 1637.0050048828125 1631.8919677734375 1630.126953125 1627.9000244140625 1624.0799560546875 1621.1669921875 1617.8330078125 1615.030029296875 1612.6650390625 1610.251953125 1606.616943359375 1603.7550048828125 1602.31005859375 1599.699951171875 1596.843017578125 1595.343017578125 1593.800048828125 1592.9730224609375 1592.52001953125 1591.0150146484375 1588.7130126953125 1586.7750244140625 1585.449951171875 1584.5830078125 1583.5880126953125 1583.123046875 1581.5550537109375 1579.9449462890625 1576.2149658203125 1574.9649658203125 1573.0150146484375 1571.6099853515625 1570.300048828125 1568.8179931640625 1567.949951171875
1403.364990234375 1405.56494140625 1405.8380126953125 1406.572998046875 1411.552001953125 1416.6650390625 1422.1800537109375 1425.8699951171875 1429.677001953125 1434.1800537109375 1439.126953125 1444.1719970703125 1449.43505859375 1453.2130126953125 1456.5679931640625 1460.8280029296875 1465.510009765625 1472.468017578125 1476.0880126953125 1479.3699951171875 1481.2149658203125 1485.7080078125 1491.68994140625 1497.3070068359375 1502.5570068359375 1507.6700439453125 1515.238037109375 1522.758056640625 1527.8179931640625 1532.1429443359375 1533.3680419921875 1537.60498046875 1538.9830322265625 1544.1949462890625 1547.7650146484375 1551.0250244140625 1554.699951171875 1555.35498046875 1559.761962890625 1562.383056640625 1563.7869873046875 1570.7080078125 1577.5699462890625 1582.001953125 1588.761962890625 1593.376953125 1596.18505859375 1599.8050537109375 1601.427001953125 1602.9949951171875 1605.866943359375 1608.2679443359375 1609.9219970703125 1611.9200439453125 1617.155029296875 1624.594970703125 1632.925048828125 1638.281982421875 1640.9649658203125 1644.125 1645.876953125 1646.9580078125 1647.4599609375 1646.3179931640625 1645.886962890625 1645.7750244140625 1646.14501953125 1647.2769775390625 1648.5 1648.9749755859375 1649.4019775390625 1650.1650390625 1651.5880126953125 1654.0269775390625 1656.1929931640625 1659.510009765625 1663.93798828125 1669.0699462890625 1673.1400146484375 1676.0980224609375 1679.9169921875 1684.5550537109375 1688.425048828125 1691.7750244140625 1695.4930419921875 1699.501953125 1703.4599609375 1707.2969970703125 1711.4320068359375 1715.7900390625 1719.5269775390625 1723.52197265625 1727.9949951171875 1732.3399658203125 1736.4019775390625 1738.93994140625 1741.6400146484375 1743.6070556640625 1746.0479736328125 1748.364990234375 1750.7769775390625 1752.7430419921875 1754.3299560546875 1755.4019775390625 1756.6529541015625 1757.6719970703125 1758.3470458984375 1758.85302734375 1759.4630126953125 1759.5699462890625 1759.633056640625 1759.281982421875 1758.248046875 1755.81005859375 1751.218017578125 1749.8070068359375 1743.5269775390625 1735.405029296875 1727.60498046875 1721.030029296875 1715.4530029296875 1705.39697265625 1697.7650146484375 1691.2550048828125 1683.4019775390625 1675.5679931640625 1668.14697265625 1661.780029296875 1655.886962890625 1650.3580322265625 1642.27001953125 1640.8050537109375 1636.8480224609375 1633.85498046875 1630.636962890625 1627.2550048828125 1624.574951171875 1621.9300537109375 1620.2080078125 1618.739990234375 1617.300048828125 1614.3050537109375 1609.0469970703125 1603.885009765625 1600.469970703125 1598.136962890625 1597.135009765625 1596.06005859375 1592.8330078125 1590.739990234375 1591.0450439453125 1591.02001953125 1589.31494140625 1586.8199462890625 1585.43994140625 1584.469970703125 1583.156982421875 1582.0849609375 1580.469970703125 1579.0980224609375 1576.7850341796875 1575.010009765625 1573.56494140625 1572.2850341796875 1570.050048828125 1566.2230224609375 1563.8330078125
1409.656982421875 1412.2900390625 1411.77001953125 1412.8900146484375 1416.2330322265625 1416.0150146484375 1420.9119873046875 1423.6669921875 1427.376953125 1431.748046875 1433.93798828125 1438.260009765625 1443.7900390625 1446.9530029296875 1450.802001953125 1455.125 1461.4580078125 1465.875 1471.6600341796875 1477.0279541015625 1481.280029296875 1485.4630126953125 1489.116943359375 1493.093017578125 1496.883056640625 1500.864990234375 1506.594970703125 1511.2669677734375 1519.2349853515625 1522.989990234375 1525.9150390625 1529.2049560546875 1532.988037109375 1538.4219970703125 1544.1700439453125 1547.998046875 1546.5550537109375 1550.1500244140625 1550.7969970703125 1554.363037109375 1560.5880126953125 1566.8929443359375 1572.7249755859375 1579.8070068359375 1584.125 1590.6820068359375 1594.093017578125 1596.218017578125 1600.8380126953125 1602.760009765625 1605.947998046875 1608.27197265625 1609.4949951171875 1612.5880126953125 1616.739990234375 1624.60302734375 1631.1949462890625 1636.1099853515625 1638.7149658203125 1641.5400390625 1643.5419921875 1644.875 1645.3499755859375 1645.2330322265625 1644.4219970703125 1644.9530029296875 1645.876953125 1646.2650146484375 1648.7349853515625 1649.1719970703125 1649.3050537109375 1650.406982421875 1652.8070068359375 1655.1199951171875 1657.77197265625 1661.8299560546875 1665.5980224609375 1670.22998046875 1674.1300048828125 1676.64697265625 1680.64501953125 1685.530029296875 1689.8470458984375 1693.6099853515625 1697.0169677734375 1700.9849853515625 1704.885009765625 1708.7230224609375 1712.875 1717.2919921875 1721.2650146484375 1725.5 1729.9300537109375 1734.2869873046875 1737.7449951171875 1740.52197265625 1743.3699951171875 1745.2650146484375 1747.6300048828125 1750.4949951171875 1752.873046875 1754.741943359375 1756.2919921875 1757.366943359375 1758.6619873046875 1759.72998046875 1760.447998046875 1760.802001953125 1761.123046875 1761.2919921875 1761.1949462890625 1760.6400146484375 1758.06005859375 1752.613037109375 1745.8919677734375 1742.136962890625 1737.0400390625 1730.030029296875 1722.302001953125 1715.175048828125 1708.43505859375 1701.876953125 1693.751953125 1686.6629638671875 1680.0150146484375 1673.4849853515625 1666.5679931640625 1659.468017578125 1653.43505859375 1648.0369873046875 1641.06494140625 1640.738037109375 1639.614990234375 1634.7349853515625 1631.7650146484375 1628.873046875 1626.988037109375 1625.843017578125 1624.613037109375 1623.3380126953125 1621.5849609375 1617.22998046875 1611.718017578125 1606.0150146484375 1601.85302734375 1599.219970703125 1598.2919921875 1596.3399658203125 1592.5419921875 1589.3280029296875 1589 1589.552001953125 1588.93798828125 1587.6400146484375 1585.9949951171875 1584.4449462890625 1582.949951171875 1581.175048828125 1579.47802734375 1578.3900146484375 1576.9150390625 1575.594970703125 1574.4549560546875 1572.8330078125 1570.5880126953125 1569.3070068359375 1567.406982421875
1415.47998046875 1417.8330078125 1418.5999755859375 1419.4150390625 1421.02001953125 1423.10302734375 1424.93994140625 1425.927001953125 1430.2149658203125 1433.780029296875 1435.7349853515625 1440.1669921875 1441.4119873046875 1443.6619873046875 1448.1929931640625 1450.68798828125 1456.7330322265625 1460.760009765625 1465.2669677734375 1471.3179931640625 1477.8349609375 1484.324951171875 1488.0830078125 1490.2919921875 1493.77001953125 1496.8199462890625 1499.5980224609375 1501.9100341796875 1508.8050537109375 1514.322998046875 1519.5250244140625 1524.6619873046875 1528.3380126953125 1535.56298828125 1542.6319580078125 1542.5699462890625 1541.52197265625 1541.9949951171875 1545.383056640625 1550.386962890625 1557.425048828125 1563.72802734375 1568.739990234375 1572.4530029296875 1577.3299560546875 1588.8330078125 1593.739990234375 1596.14501953125 1601.9150390625 1604.7349853515625 1603.5419921875 1605.35498046875 1609.741943359375 1613.4200439453125 1618.4599609375 1624.2550048828125 1629.8330078125 1635.8199462890625 1638.5350341796875 1640.10498046875 1641.5570068359375 1643.781982421875 1644.06298828125 1643.8380126953125 1643.6080322265625 1644.18505859375 1644.9000244140625 1645.6800537109375 1648.969970703125 1649.1519775390625 1649.22998046875 1651.77197265625 1654.4449462890625 1657.093017578125 1659.8179931640625 1663.6099853515625 1667.613037109375 1671.8680419921875 1675.199951171875 1677.8299560546875 1681.427001953125 1686.656982421875 1691.136962890625 1695.113037109375 1698.5980224609375 1702.6820068359375 1706.593017578125 1710.530029296875 1714.626953125 1718.718017578125 1723.239990234375 1727.7330322265625 1732.1800537109375 1736.39697265625 1739.5150146484375 1742.1199951171875 1744.241943359375 1746.7950439453125 1749.47998046875 1752.219970703125 1754.572998046875 1756.363037109375 1757.9150390625 1759.344970703125 1760.5849609375 1761.636962890625 1762.3699951171875 1762.7919921875 1762.9219970703125 1763.18505859375 1762.885009765625 1762.0849609375 1758.4599609375 1752.3280029296875 1745.56298828125 1738.3050537109375 1731.1820068359375 1724.238037109375 1717.593017578125 1710.383056640625 1703.39501953125 1696.8570556640625 1689.5699462890625 1684.1400146484375 1677.22802734375 1671.864990234375 1665.5450439453125 1659.6929931640625 1654.251953125 1649.614990234375 1643.883056640625 1641.47802734375 1639.2149658203125 1638.18994140625 1636.074951171875 1634.251953125 1632.593017578125 1630.4449462890625 1628.6619873046875 1626.7669677734375 1623.7750244140625 1619.93505859375 1614.126953125 1609.2679443359375 1605.4429931640625 1602.4200439453125 1600.001953125 1597.4830322265625 1593.947998046875 1590.56494140625 1589.4000244140625 1589.3900146484375 1588.4320068359375 1587.1619873046875 1586.2869873046875 1585.2550048828125 1583.8280029296875 1583.14501953125 1582.052001953125 1580.43505859375 1577.7080078125 1576.5 1575.89697265625 1574.498046875 1573.0169677734375 1571.593017578125 1570.114990234375
1419.425048828125 1424.0799560546875 1425.2080078125 1425.3199462890625 1426.5830078125 1429.2330322265625 1431.656982421875 1431.6949462890625 1435.0179443359375 1438.218017578125 1441.300048828125 1444.4599609375 1446.844970703125 1449.4150390625 1452.738037109375 1454.7679443359375 1457.2230224609375 1457.677001953125 1462.0780029296875 1467.9200439453125 1473.1429443359375 1478.302001953125 1484.8070068359375 1489.6600341796875 1491.9549560546875 1495.0350341796875 1498.2769775390625 1501.9749755859375 1506.10498046875 1511.18798828125 1516.125 1520.2030029296875 1525.0050048828125 1531.4200439453125 1535.1800537109375 1534.1500244140625 1533.81005859375 1539.427001953125 1544.9649658203125 1551.3349609375 1556.886962890625 1560.4820556640625 1565.2149658203125 1571.2330322265625 1579.3330078125 1588.074951171875 1594.77197265625 1597.3570556640625 1601.9649658203125 1605.114990234375 1607.4949951171875 1609.5050048828125 1611.530029296875 1614.5799560546875 1620.5899658203125 1626.969970703125 1633.0899658203125 1636.7550048828125 1637.8900146484375 1639.197998046875 1641.56005859375 1642.9580078125 1642.8800048828125 1642.822998046875 1643.1500244140625 1643.6319580078125 1643.8199462890625 1645.177001953125 1648.613037109375 1649.14697265625 1648.6820068359375 1653.8330078125 1656.31005859375 1658.300048828125 1661.1180419921875 1664.43798828125 1668.75 1673.31298828125 1676.3699951171875 1679.7449951171875 1682.5350341796875 1687.501953125 1692.8380126953125 1696.6400146484375 1700.218017578125 1704.3399658203125 1707.97802734375 1712.0780029296875 1715.947998046875 1720.594970703125 1724.9849853515625 1729.60302734375 1733.93505859375 1737.7669677734375 1740.5350341796875 1743.8299560546875 1745.7099609375 1748.75 1751.56005859375 1754.0369873046875 1756.31005859375 1757.991943359375 1759.43994140625 1760.9549560546875 1762.4100341796875 1763.488037109375 1764.2769775390625 1764.885009765625 1765 1765.1949462890625 1764.9580078125 1763.844970703125 1759.3800048828125 1752.6419677734375 1744.613037109375 1736.8330078125 1729.35302734375 1721.2919921875 1714.2869873046875 1707.491943359375 1700.468017578125 1694.1719970703125 1687.9549560546875 1681.93798828125 1675.6820068359375 1670.1820068359375 1665.7099609375 1660.68505859375 1656.18505859375 1651.719970703125 1648.10498046875 1643.947998046875 1643.6820068359375 1641.68505859375 1639.7049560546875 1637.7869873046875 1635.4150390625 1632.39697265625 1630.77001953125 1627.197998046875 1623.885009765625 1619.822998046875 1616.2349853515625 1612.427001953125 1608.8929443359375 1605.802001953125 1602.9649658203125 1600.5880126953125 1597.0830078125 1594.405029296875 1594.0400390625 1592.491943359375 1590.6400146484375 1589.3280029296875 1588.175048828125 1586.9200439453125 1585.27001953125 1583.9429931640625 1583.156982421875 1581.781982421875 1579.5169677734375 1578.5250244140625 1576.5050048828125 1575.5999755859375 1574.0419921875 1573.5250244140625 1572
1424.97802734375 1428.9849853515625 1432.1500244140625 1432.2449951171875 1433.843017578125 1434.35498046875 1437.864990234375 1437.9530029296875 1440.156982421875 1443.3900146484375 1444.552001953125 1449.6080322265625 1452.9219970703125 1455.406982421875 1456.6800537109375 1460.010009765625 1462.31494140625 1465.0899658203125 1463.9320068359375 1466.873046875 1469.27001953125 1475.468017578125 1479.81494140625 1483.3480224609375 1487.2869873046875 1491.5899658203125 1495.8499755859375 1498.802001953125 1503.9969482421875 1506.135009765625 1509.906982421875 1514.3399658203125 1518.8680419921875 1525.72998046875 1526.4300537109375 1528.3070068359375 1536.260009765625 1543.2950439453125 1549.2950439453125 1555.0550537109375 1561.6719970703125 1566.4580078125 1570.7900390625 1577.155029296875 1582.656982421875 1590.02001953125 1596.4000244140625 1599.2230224609375 1603.385009765625 1607.6099853515625 1611.2449951171875 1613.0679931640625 1614.0880126953125 1616.68798828125 1619.6600341796875 1624.761962890625 1630.7449951171875 1637.27197265625 1638.863037109375 1639.8800048828125 1640.906982421875 1641.760009765625 1641.7149658203125 1641.718017578125 1642.406982421875 1642.675048828125 1643.406982421875 1643.552001953125 1647.072998046875 1648.2550048828125 1649.7669677734375 1654.468017578125 1657.3819580078125 1658.905029296875 1661.77197265625 1664.9549560546875 1669.498046875 1673.949951171875 1677.5550537109375 1680.8800048828125 1684.39697265625 1689.261962890625 1694.14501953125 1698.0799560546875 1702.31298828125 1705.8780517578125 1709.886962890625 1713.8919677734375 1718.0570068359375 1722.0069580078125 1726.7769775390625 1731.5469970703125 1735.302001953125 1738.4730224609375 1741.85498046875 1744.155029296875 1747.6929931640625 1750.64697265625 1753.177001953125 1755.8470458984375 1758.1180419921875 1759.824951171875 1761.260009765625 1762.761962890625 1764.219970703125 1765.261962890625 1766.1500244140625 1766.843017578125 1767.511962890625 1767.406982421875 1767.344970703125 1765.2850341796875 1759.386962890625 1750.8570556640625 1742.4849853515625 1735.1800537109375 1728.5849609375 1720.2030029296875 1713.508056640625 1707.3599853515625 1701.31494140625 1694.4949951171875 1686.8919677734375 1680.133056640625 1675.72998046875 1671.0169677734375 1667.0799560546875 1662.7979736328125 1658.5550537109375 1654.3599853515625 1651.5250244140625 1649.531982421875 1647.9019775390625 1645.594970703125 1643.468017578125 1640.4200439453125 1637.072998046875 1634.06494140625 1630.4300537109375 1628.2919921875 1624.3280029296875 1621.3199462890625 1617.8900146484375 1614.6650390625 1610.9749755859375 1607.5780029296875 1605.248046875 1602.7950439453125 1600.18994140625 1597.864990234375 1596.1800537109375 1594.4019775390625 1592.1400146484375 1590.4649658203125 1588.824951171875 1586.9949951171875 1585.614990234375 1584.219970703125 1583.02001953125 1581.2869873046875 1579.6300048828125 1578.718017578125 1577.5469970703125 1575.800048828125 1574.5419921875 1573.8179931640625 1572.6080322265625
1430.344970703125 1433.1600341796875 1437.0679931640625 1440.2049560546875 1438.4930419921875 1440.718017578125 1443.824951171875 1443.2049560546875 1446.280029296875 1448.5570068359375 1450.56005859375 1454.02197265625 1456.8800048828125 1459.1319580078125 1459.9749755859375 1463.0469970703125 1466.6400146484375 1470.5570068359375 1470.0400390625 1470.2020263671875 1472.75 1475.3280029296875 1477.47802734375 1481.531982421875 1486.2099609375 1487.8199462890625 1492.8570556640625 1495.0980224609375 1498.85498046875 1502.425048828125 1506.35302734375 1511.0469970703125 1515.385009765625 1519.8399658203125 1526.2679443359375 1532.4649658203125 1539.2449951171875 1546.9150390625 1554.64697265625 1561.300048828125 1566.7130126953125 1572.6500244140625 1577.760009765625 1581.93994140625 1585.3280029296875 1591.7850341796875 1596.6280517578125 1601.6800537109375 1606.3199462890625 1609.9849853515625 1612.626953125 1614.530029296875 1618.8280029296875 1623.281982421875 1626.7869873046875 1627.5799560546875 1628.7080078125 1632.550048828125 1635.126953125 1636.8280029296875 1637.7650146484375 1640.9649658203125 1642.1719970703125 1642.155029296875 1642.373046875 1642.7130126953125 1643.1199951171875 1644.4200439453125 1647.0899658203125 1651.3929443359375 1653.35498046875 1655.0369873046875 1658.31298828125 1660.1619873046875 1662.4949951171875 1665.81005859375 1670.052001953125 1674.6669921875 1678.572998046875 1682.27001953125 1685.9320068359375 1690.6500244140625 1695.427001953125 1700 1703.9429931640625 1707.7969970703125 1712.0250244140625 1715.824951171875 1719.593017578125 1723.9530029296875 1728.260009765625 1732.498046875 1736.0400390625 1739.4320068359375 1743.3570556640625 1746.06494140625 1749.197998046875 1752.0450439453125 1754.863037109375 1757.4219970703125 1759.7330322265625 1761.512939453125 1763.135009765625 1764.675048828125 1766.0849609375 1767.030029296875 1768.031982421875 1768.7950439453125 1769.636962890625 1769.822998046875 1768.89501953125 1763.373046875 1756.373046875 1748.7030029296875 1741.18505859375 1733.300048828125 1727.2080078125 1719.81298828125 1714.2919921875 1708.5150146484375 1702.623046875 1695.0250244140625 1687.175048828125 1679.925048828125 1675.3349609375 1672.4949951171875 1669.1949462890625 1665.574951171875 1661.4300537109375 1658.2149658203125 1656.126953125 1653.866943359375 1651.218017578125 1648.218017578125 1645.739990234375 1641.780029296875 1638.626953125 1636.02197265625 1633.2669677734375 1628.9930419921875 1627.85302734375 1623.8599853515625 1620.593017578125 1617.261962890625 1614.2049560546875 1610.8179931640625 1608.6519775390625 1606.135009765625 1602.9599609375 1600.7950439453125 1598.3399658203125 1596.218017578125 1593.4749755859375 1591.2449951171875 1589.613037109375 1588.2049560546875 1586.824951171875 1584.906982421875 1583.133056640625 1581.6180419921875 1580.3330078125 1579.0679931640625 1576.8280029296875 1575.4849853515625 1575.0419921875 1574.2900390625 1572.0550537109375
1437.447998046875 1438.780029296875 1441.572998046875 1444.6199951171875 1446.10302734375 1445.25 1447.64697265625 1449.238037109375 1450.2080078125 1451.0450439453125 1452.81494140625 1455.68505859375 1458.5419921875 1461.0999755859375 1464.052001953125 1468.1629638671875 1471.7669677734375 1473.72998046875 1477.6820068359375 1475.3280029296875 1479.14697265625 1478.89501953125 1482.22802734375 1484.8499755859375 1488.9000244140625 1493.875 1495.93994140625 1499.9219970703125 1502.947998046875 1506.89501953125 1509.56298828125 1513.822998046875 1521.197998046875 1525.4849853515625 1531.906982421875 1537.93798828125 1542.6949462890625 1549.43798828125 1557.75 1564.1719970703125 1569.906982421875 1575.5899658203125 1581.8919677734375 1587.3599853515625 1592.4749755859375 1596.1619873046875 1598.7330322265625 1603.7230224609375 1607.5780029296875 1611.0250244140625 1613.0849609375 1617.0450439453125 1621.8499755859375 1626.197998046875 1629.626953125 1633.3900146484375 1636.031982421875 1637.06494140625 1637.2650146484375 1639.376953125 1641.623046875 1642.7950439453125 1644.35302734375 1644.06005859375 1643.4580078125 1643.3499755859375 1644.1500244140625 1646.0469970703125 1649.2569580078125 1652.7130126953125 1655.39697265625 1657.2869873046875 1659.35498046875 1661.9029541015625 1664.5849609375 1666.9720458984375 1670.8570556640625 1675.2919921875 1679.4000244140625 1683.5350341796875 1687.6219482421875 1692.43994140625 1697.2099609375 1701.68994140625 1705.988037109375 1710.0880126953125 1714.02001953125 1717.7969970703125 1721.550048828125 1725.3580322265625 1729.7149658203125 1733.427001953125 1737.0550537109375 1740.949951171875 1743.7349853515625 1747.2030029296875 1750.781982421875 1753.89501953125 1756.7149658203125 1759.39501953125 1761.4930419921875 1763.4930419921875 1765.0870361328125 1766.594970703125 1768.0699462890625 1769.093017578125 1770.06494140625 1771.0250244140625 1771.97998046875 1771.886962890625 1768.699951171875 1761.675048828125 1754.0419921875 1747.135009765625 1740.501953125 1734.47998046875 1728.0830078125 1721.7750244140625 1716.1700439453125 1708.843017578125 1701.8280029296875 1695.06298828125 1687.719970703125 1680.9150390625 1676.5830078125 1673.947998046875 1671.1070556640625 1667.6619873046875 1664.60498046875 1662.3179931640625 1659.77001953125 1657.1669921875 1654.0400390625 1650.8199462890625 1647.8199462890625 1643.6400146484375 1641.114990234375 1638.113037109375 1636.197998046875 1632.843017578125 1629.9749755859375 1626.741943359375 1624.739990234375 1620.9630126953125 1617.9320068359375 1614.3819580078125 1610.9749755859375 1609.3599853515625 1607.0400390625 1603.9930419921875 1601.2430419921875 1599.0899658203125 1597.1719970703125 1594.758056640625 1593.0069580078125 1592.655029296875 1591.10498046875 1588.947998046875 1587.0419921875 1584.8199462890625 1583.06298828125 1581.3800048828125 1578.593017578125 1576.81005859375 1575.3499755859375 1575.135009765625 1572.3179931640625
1440.9580078125 1444.614990234375 1446.8349609375 1449.0450439453125 1450.322998046875 1452.072998046875 1451.593017578125 1451.875 1452.2769775390625 1453.0550537109375 1454.258056640625 1456.47802734375 1459.18994140625 1461.7030029296875 1464.9949951171875 1469.925048828125 1472.375 1476.27001953125 1479.718017578125 1481.489990234375 1483.530029296875 1487.27197265625 1488.18505859375 1489.9530029296875 1493.97998046875 1497.6419677734375 1500.989990234375 1503.2969970703125 1505.8070068359375 1508.6099853515625 1511.614990234375 1515.123046875 1521.4549560546875 1528.4200439453125 1533.761962890625 1541.0679931640625 1547.0050048828125 1553.56005859375 1559.7230224609375 1566.677001953125 1573.47998046875 1579.613037109375 1585.9649658203125 1591.636962890625 1596.739990234375 1599.10498046875 1602.85302734375 1606.5570068359375 1610.3330078125 1610.9429931640625 1614.6199951171875 1620.06494140625 1624.572998046875 1627.7669677734375 1629.8499755859375 1632.594970703125 1636.1099853515625 1640.219970703125 1641.781982421875 1642.6949462890625 1643.5069580078125 1644.491943359375 1645.802001953125 1646.386962890625 1646.4549560546875 1646.9000244140625 1647.093017578125 1648.72802734375 1650.6400146484375 1653.8299560546875 1657.02197265625 1659.0250244140625 1660.988037109375 1663.1280517578125 1665.8330078125 1668.9320068359375 1672.574951171875 1676.85302734375 1680.4530029296875 1684.593017578125 1689.199951171875 1694.050048828125 1698.8819580078125 1703.093017578125 1707.626953125 1711.8399658203125 1716.0150146484375 1720.239990234375 1723.7650146484375 1727.43994140625 1730.93505859375 1734.905029296875 1738.383056640625 1741.449951171875 1745.3699951171875 1748.988037109375 1752.6619873046875 1755.89697265625 1758.8599853515625 1761.155029296875 1763.1519775390625 1765.155029296875 1766.947998046875 1768.60498046875 1770.116943359375 1771.2750244140625 1772.2750244140625 1773.511962890625 1774.10498046875 1772.9930419921875 1767.7330322265625 1760.52001953125 1753.6949462890625 1747.258056640625 1741.510009765625 1736.125 1730.81494140625 1726.0369873046875 1717.6820068359375 1710.031982421875 1703.27001953125 1696.3800048828125 1689.4599609375 1683.113037109375 1678 1675.594970703125 1673.27197265625 1670.4029541015625 1667.802001953125 1665.406982421875 1662.468017578125 1659.9219970703125 1656.574951171875 1652.800048828125 1649.27001953125 1647.030029296875 1644.0269775390625 1641.7869873046875 1640.39501953125 1638.1600341796875 1634.8499755859375 1631.3050537109375 1627.248046875 1624.383056640625 1623.238037109375 1620.2750244140625 1616.7330322265625 1613.3900146484375 1610.906982421875 1607.9019775390625 1604.8299560546875 1602.074951171875 1600.126953125 1597.218017578125 1595.988037109375 1595.9150390625 1594.1500244140625 1591.6199951171875 1588.655029296875 1585.8919677734375 1583.1700439453125 1579.748046875 1577.4949951171875 1575.8349609375 1574.802001953125 1573.02001953125 1570.9429931640625
1443.81005859375 1447.2950439453125 1450.6319580078125 1452.655029296875 1454.93505859375 1455.0050048828125 1455.7049560546875 1454.4219970703125 1454.9749755859375 1455.405029296875 1456.363037109375 1457.781982421875 1460.1199951171875 1462.7550048828125 1464.97802734375 1468.302001953125 1472.2679443359375 1476.8800048828125 1481.2969970703125 1484.7769775390625 1487.447998046875 1489.6669921875 1492.177001953125 1494.863037109375 1496.3179931640625 1500.43994140625 1503.238037109375 1505.363037109375 1506.81494140625 1509.4830322265625 1512.8349609375 1517.405029296875 1522.1199951171875 1529.219970703125 1534.6820068359375 1541.699951171875 1548.7919921875 1555.251953125 1561.7249755859375 1568.9649658203125 1576.2030029296875 1582.77197265625 1588.7349853515625 1594.7149658203125 1598.0799560546875 1602.5899658203125 1606.447998046875 1609.7430419921875 1613.4429931640625 1615.8480224609375 1618.824951171875 1622.633056640625 1626.4530029296875 1628.8070068359375 1630.6519775390625 1632.9000244140625 1635.572998046875 1639.6650390625 1643.6199951171875 1643.8070068359375 1644.008056640625 1644.8070068359375 1646.7120361328125 1647.0150146484375 1648.760009765625 1649.7030029296875 1650.5849609375 1651.9029541015625 1653.488037109375 1655.0699462890625 1657.4119873046875 1660.4549560546875 1663.114990234375 1665.2349853515625 1667.738037109375 1670.633056640625 1675.123046875 1678.75 1682.10498046875 1686.0999755859375 1690.5799560546875 1695.155029296875 1699.9019775390625 1704.9649658203125 1709.239990234375 1713.72998046875 1717.800048828125 1721.574951171875 1725.0169677734375 1729.072998046875 1732.6500244140625 1736.261962890625 1740.406982421875 1743.156982421875 1746.7030029296875 1750.616943359375 1754.197998046875 1757.738037109375 1760.60302734375 1762.89501953125 1764.802001953125 1766.7850341796875 1768.89501953125 1770.550048828125 1772.02197265625 1773.60302734375 1774.991943359375 1776.2099609375 1776.2320556640625 1773.7900390625 1767.738037109375 1761.343017578125 1755.0570068359375 1749.614990234375 1744.4599609375 1739.6500244140625 1734.6619873046875 1728.1500244140625 1720.5679931640625 1713.2249755859375 1705.866943359375 1698.626953125 1692.488037109375 1686.14697265625 1682.052001953125 1679.675048828125 1676 1673.06005859375 1670.4549560546875 1668.113037109375 1664.9599609375 1661.718017578125 1659.135009765625 1656.302001953125 1653.260009765625 1650.81494140625 1647.574951171875 1645.9580078125 1644.02197265625 1642.156982421875 1639.123046875 1635.5350341796875 1632.5400390625 1630.64697265625 1627.7550048828125 1624.4449462890625 1620.800048828125 1619.64697265625 1616.52001953125 1612.4849853515625 1609.126953125 1604.991943359375 1602.614990234375 1600.5799560546875 1599.4830322265625 1598.2230224609375 1595.7249755859375 1592.5980224609375 1589.3499755859375 1585.991943359375 1582.1519775390625 1577.4599609375 1573.5369873046875 1572.3299560546875 1570.1300048828125 1568.7779541015625 1567.344970703125
1448.155029296875 1450.373046875 1453.0069580078125 1455.843017578125 1458.0469970703125 1459.800048828125 1458.5699462890625 1457.113037109375 1456.991943359375 1457.199951171875 1458.3349609375 1459.2919921875 1461.52197265625 1464.7080078125 1467.133056640625 1469.866943359375 1473.344970703125 1479.241943359375 1484.2550048828125 1487.5050048828125 1489.8499755859375 1492.4150390625 1493.218017578125 1497.7130126953125 1500.991943359375 1503.510009765625 1505.373046875 1508.0550537109375 1510.22998046875 1511.9169921875 1514.7850341796875 1519.10498046875 1523.636962890625 1529.72998046875 1536.5150146484375 1542.7900390625 1550.468017578125 1556.6099853515625 1563.239990234375 1570.375 1577.4169921875 1584.4150390625 1590.9119873046875 1597.9530029296875 1601.77197265625 1605.385009765625 1608.876953125 1612.4549560546875 1615.719970703125 1619.363037109375 1622.56005859375 1625.406982421875 1627.5999755859375 1629.469970703125 1631.43505859375 1633.4649658203125 1636.2769775390625 1641.7550048828125 1644.052001953125 1644.2099609375 1644.636962890625 1646.5899658203125 1648.324951171875 1649.969970703125 1651.9219970703125 1653.0550537109375 1653.77197265625 1655.2919921875 1656.2869873046875 1657.7099609375 1659.5450439453125 1661.9549560546875 1664.8349609375 1667.3900146484375 1670.199951171875 1672.8280029296875 1676.8070068359375 1680.56005859375 1683.3680419921875 1687.136962890625 1691.6180419921875 1696.1800537109375 1701.001953125 1705.8499755859375 1710.886962890625 1715.1519775390625 1719.3070068359375 1723.1600341796875 1726.949951171875 1730.81494140625 1734.3179931640625 1738.125 1741.0550537109375 1744.873046875 1748.2030029296875 1752.280029296875 1756.2099609375 1759.6949462890625 1762.4580078125 1764.5570068359375 1766.7230224609375 1768.843017578125 1770.991943359375 1772.8919677734375 1774.2769775390625 1776.175048828125 1777.8580322265625 1778.1619873046875 1777.635009765625 1774.6519775390625 1769.0419921875 1762.9100341796875 1756.9649658203125 1752.074951171875 1747.0699462890625 1742.9150390625 1738.9749755859375 1731.2330322265625 1723.47802734375 1715.883056640625 1708.6929931640625 1701.93994140625 1695.883056640625 1690.4300537109375 1687.251953125 1684.43505859375 1680.552001953125 1676.001953125 1673.14501953125 1670.60498046875 1668.3900146484375 1665.9429931640625 1662.9429931640625 1660.719970703125 1657.5830078125 1653.5679931640625 1652.552001953125 1651.113037109375 1647.968017578125 1646.0150146484375 1642.824951171875 1640.614990234375 1638.241943359375 1636.5400390625 1634.530029296875 1631.135009765625 1627.406982421875 1624.5980224609375 1619.0899658203125 1617.3819580078125 1613.011962890625 1608.4620361328125 1604.8179931640625 1602.9019775390625 1601.1800537109375 1599.156982421875 1596.4530029296875 1593.927001953125 1590.7919921875 1586.136962890625 1581.8179931640625 1577.3680419921875 1573.9949951171875 1570.85498046875 1567.748046875 1565.072998046875 1562.656982421875
1452.18505859375 1454.2919921875 1455.9000244140625 1457.9300537109375 1460.6300048828125 1462.8480224609375 1463.751953125 1461.7130126953125 1459.5570068359375 1459.8499755859375 1460.1669921875 1460.498046875 1462.927001953125 1465.7349853515625 1468.85498046875 1473.06494140625 1477.2249755859375 1482.4820556640625 1489.031982421875 1492.800048828125 1494.885009765625 1497.511962890625 1498.9820556640625 1500.241943359375 1504.4949951171875 1506.1600341796875 1507.656982421875 1510.822998046875 1514.4820556640625 1516.8919677734375 1519.7679443359375 1522.7869873046875 1526.9730224609375 1532.508056640625 1538.0469970703125 1545.4749755859375 1552.0400390625 1557.758056640625 1564.4580078125 1571.6669921875 1578.616943359375 1585.3800048828125 1591.56494140625 1598.781982421875 1603.4549560546875 1607.738037109375 1610.8070068359375 1614.133056640625 1616.9599609375 1619.9749755859375 1622.7349853515625 1625.56298828125 1628.0780029296875 1630.050048828125 1631.81494140625 1633.7030029296875 1636.988037109375 1642.2550048828125 1643.9429931640625 1644.7650146484375 1647.3280029296875 1648.4830322265625 1650.4849853515625 1652.114990234375 1653.60498046875 1655.050048828125 1656.39501953125 1657.5899658203125 1658.8599853515625 1660.6700439453125 1662.843017578125 1664.8280029296875 1667.510009765625 1670.2779541015625 1672.43505859375 1675.8499755859375 1679.2149658203125 1682.77001953125 1686.1700439453125 1689.3680419921875 1693.7330322265625 1697.406982421875 1702.2669677734375 1706.97998046875 1712.0999755859375 1716.3070068359375 1720.60498046875 1724.7449951171875 1728.511962890625 1732.0899658203125 1735.6619873046875 1738.802001953125 1743.0799560546875 1746.780029296875 1750.501953125 1754.5 1758.02197265625 1761.7779541015625 1764.199951171875 1766.376953125 1769.7049560546875 1770.800048828125 1773.1500244140625 1775.06005859375 1776.875 1778.8199462890625 1780.219970703125 1780.02197265625 1778.594970703125 1775.5980224609375 1770.5570068359375 1765.2919921875 1759.675048828125 1754.56494140625 1750.156982421875 1746.2919921875 1741.1929931640625 1734.5400390625 1726.85302734375 1719.281982421875 1712.2900390625 1705.363037109375 1699.6820068359375 1694.655029296875 1691.81494140625 1688.3900146484375 1684.3280029296875 1679.469970703125 1676.9630126953125 1675.280029296875 1672.93505859375 1669.9620361328125 1667.8570556640625 1665.0780029296875 1662.1800537109375 1660.094970703125 1658.0150146484375 1654.906982421875 1654.2850341796875 1650.697998046875 1648.6600341796875 1646.6719970703125 1644.43994140625 1642.8070068359375 1640.4300537109375 1637.3580322265625 1633.5169677734375 1629.4000244140625 1625.3330078125 1620.5179443359375 1615.905029296875 1611.35498046875 1607.1949462890625 1603.866943359375 1601.9019775390625 1599.875 1598.1500244140625 1594.9320068359375 1591.22998046875 1587.2080078125 1583.2779541015625 1580.0419921875 1576.989990234375 1573.5550537109375 1569.9000244140625 1566.5169677734375 1563.2469482421875
1456.3399658203125 1457.5849609375 1459.010009765625 1460.2080078125 1461.4649658203125 1464.9119873046875 1464.39501953125 1466.800048828125 1464.47998046875 1462.6619873046875 1463.322998046875 1464.550048828125 1467.074951171875 1470.8299560546875 1474.64697265625 1478.5899658203125 1481.280029296875 1485.8179931640625 1492.635009765625 1498.6800537109375 1501.06494140625 1503.02001953125 1503.9000244140625 1506.281982421875 1508.7099609375 1510.574951171875 1510.655029296875 1514.074951171875 1517.886962890625 1521.3070068359375 1524.6669921875 1527.8929443359375 1531.0469970703125 1535.93505859375 1541.6949462890625 1547.969970703125 1552.998046875 1558.5550537109375 1565.5469970703125 1572.760009765625 1579.7750244140625 1586.8070068359375 1593.6529541015625 1599.5550537109375 1603.969970703125 1607.9549560546875 1610.593017578125 1613.251953125 1615.8070068359375 1619.1619873046875 1621.85302734375 1624.9730224609375 1627.699951171875 1629.9580078125 1631.8370361328125 1633.64697265625 1636.7130126953125 1642.4580078125 1643.77001953125 1646.802001953125 1648.9849853515625 1650.0849609375 1652.114990234375 1653.9449462890625 1655.6600341796875 1656.9720458984375 1657.9849853515625 1659.0400390625 1660.781982421875 1663.1400146484375 1665.844970703125 1668.302001953125 1670.425048828125 1672.719970703125 1675.47802734375 1678.43994140625 1681.906982421875 1685.238037109375 1689.030029296875 1692.2550048828125 1695.6600341796875 1699 1703.3399658203125 1707.9119873046875 1712.613037109375 1717.2969970703125 1721.5050048828125 1725.873046875 1729.5830078125 1733.47998046875 1737.375 1740.75 1745.1099853515625 1748.9100341796875 1752.491943359375 1756.3380126953125 1760.449951171875 1763.425048828125 1766.0570068359375 1768.366943359375 1772.0400390625 1773.6650390625 1775.6700439453125 1777.510009765625 1779.60498046875 1781.5 1782.0679931640625 1781.5999755859375 1779.5830078125 1776.2750244140625 1772.5699462890625 1768.5849609375 1762.718017578125 1758.258056640625 1753.1719970703125 1749.7080078125 1744.0699462890625 1737.1319580078125 1729.9580078125 1723.3800048828125 1716.156982421875 1709.81005859375 1703.3299560546875 1699.074951171875 1695.7080078125 1691.6700439453125 1687.35302734375 1683.363037109375 1681.719970703125 1679.2249755859375 1676.89697265625 1675.0150146484375 1672.363037109375 1669.5 1668.3599853515625 1666.2349853515625 1663.81494140625 1661.4000244140625 1658.1700439453125 1656.9429931640625 1656.27001953125 1653.7130126953125 1650.866943359375 1648.8199462890625 1646.56494140625 1642.405029296875 1638.199951171875 1633.6820068359375 1628.7550048828125 1623.5980224609375 1618.218017578125 1614.1619873046875 1610.633056640625 1606.6219482421875 1604.06298828125 1601.2850341796875 1598.2049560546875 1595.2130126953125 1591.2750244140625 1588.2249755859375 1586.625 1583.6820068359375 1580.68798828125 1576.885009765625 1573.18505859375 1569.241943359375 1565.5570068359375
1459.7049560546875 1461.4820556640625 1462.5269775390625 1464.06005859375 1466.2650146484375 1466.4749755859375 1468.364990234375 1469.7469482421875 1470.383056640625 1468.8199462890625 1468.363037109375 1469.5570068359375 1472.386962890625 1476.177001953125 1479.6070556640625 1483.7449951171875 1487.4749755859375 1489.699951171875 1494.3280029296875 1502.6429443359375 1506.425048828125 1510.5570068359375 1511.1070556640625 1512.530029296875 1515.9949951171875 1515.0250244140625 1514.77001953125 1516.925048828125 1521.5369873046875 1524.64697265625 1527.280029296875 1532.06494140625 1535.39697265625 1540.136962890625 1544.281982421875 1549.251953125 1553.93798828125 1559.5150146484375 1566.22802734375 1572.824951171875 1579.9300537109375 1587.2330322265625 1592.9530029296875 1599.3399658203125 1602.8570556640625 1606.635009765625 1608.7669677734375 1610.5999755859375 1613.35302734375 1616.64697265625 1619.3399658203125 1622.64697265625 1625.5849609375 1628.93798828125 1632.011962890625 1633.5150146484375 1636.39697265625 1640.0369873046875 1643.81298828125 1647.3349609375 1650.0369873046875 1651.5169677734375 1653.5450439453125 1655.3330078125 1657.7149658203125 1659.113037109375 1660.5050048828125 1662.1619873046875 1663.9599609375 1666.7650146484375 1669.06005859375 1671.489990234375 1673.6080322265625 1675.9749755859375 1679.2900390625 1681.4630126953125 1684.8179931640625 1687.5369873046875 1691.0169677734375 1694.4000244140625 1697.883056640625 1701.43798828125 1705.3050537109375 1709.322998046875 1713.626953125 1718.136962890625 1722.2919921875 1726.6519775390625 1730.6929931640625 1734.6669921875 1737.8800048828125 1742.81298828125 1746.7750244140625 1750.7750244140625 1754.3299560546875 1757.97998046875 1761.8399658203125 1764.85498046875 1767.572998046875 1770.2530517578125 1774.4949951171875 1775.8179931640625 1778.031982421875 1780.1429443359375 1782.133056640625 1783.5279541015625 1783.5699462890625 1782.4119873046875 1780.177001953125 1776.449951171875 1773.511962890625 1770.5150146484375 1765.8199462890625 1760.927001953125 1755.8280029296875 1751.1519775390625 1746.56494140625 1740.385009765625 1734.218017578125 1726.761962890625 1719.7650146484375 1713.31005859375 1707.18505859375 1703.030029296875 1698.875 1694.1400146484375 1689.9549560546875 1687.8299560546875 1685.60498046875 1683.383056640625 1681.675048828125 1679.4029541015625 1677.5250244140625 1675.27197265625 1673.6319580078125 1671.6929931640625 1669.52001953125 1667.175048828125 1665.0369873046875 1663.136962890625 1661.4150390625 1659.9119873046875 1658.488037109375 1655.0350341796875 1651.781982421875 1647.5830078125 1642.7320556640625 1637.8900146484375 1632.219970703125 1626.75 1621.5369873046875 1618.0980224609375 1612.636962890625 1610.9530029296875 1606.0699462890625 1602.5980224609375 1598.969970703125 1595.1619873046875 1592.550048828125 1592.031982421875 1590.155029296875 1587.0699462890625 1584.0269775390625 1579.655029296875 1575.487060546875 1571.9580078125 1567.885009765625
1460.6300048828125 1463.498046875 1465.4949951171875 1467.4000244140625 1467.4119873046875 1469.873046875 1471.9000244140625 1473.5799560546875 1474.4200439453125 1474.739990234375 1474.4969482421875 1474.5699462890625 1478.10302734375 1481.875 1485.6400146484375 1487.3599853515625 1492.0369873046875 1497.1070556640625 1498.7149658203125 1505.3280029296875 1509.550048828125 1513.52001953125 1517.5679931640625 1520.123046875 1522.364990234375 1521.1500244140625 1520.219970703125 1521.751953125 1524.008056640625 1527.64697265625 1530.2750244140625 1534.9649658203125 1539.3499755859375 1542.5450439453125 1546.9730224609375 1550.906982421875 1556.0350341796875 1560.2230224609375 1565.3599853515625 1570.9949951171875 1577.5 1584.761962890625 1590.8499755859375 1596.656982421875 1600.781982421875 1604.1719970703125 1606.3499755859375 1608.7869873046875 1611.1619873046875 1613.5999755859375 1616.6400146484375 1619.6099853515625 1623.281982421875 1627.4630126953125 1632.0830078125 1634.68994140625 1637.4630126953125 1640.9029541015625 1644.0899658203125 1647.4150390625 1650.6500244140625 1652.72802734375 1655.6099853515625 1658.06298828125 1660.2769775390625 1662.094970703125 1664.0469970703125 1665.56298828125 1667.93798828125 1670.175048828125 1672.4580078125 1675.0269775390625 1677.10302734375 1679.31298828125 1681.97802734375 1684.238037109375 1687.4730224609375 1690.6669921875 1693.1650390625 1696.52001953125 1700.239990234375 1703.18505859375 1707.7130126953125 1711.5419921875 1715.3330078125 1719.4100341796875 1723.251953125 1727.385009765625 1731.5050048828125 1736.126953125 1739.947998046875 1744.06005859375 1748.239990234375 1752.156982421875 1755.8199462890625 1759.5679931640625 1763.0150146484375 1766.3349609375 1769.1500244140625 1772.344970703125 1776.9820556640625 1777.8499755859375 1780.011962890625 1782.3919677734375 1784.175048828125 1785.2769775390625 1785.2049560546875 1782.8349609375 1778.9200439453125 1776.85302734375 1774.3929443359375 1771.9169921875 1767.5450439453125 1762.7919921875 1756.93994140625 1751.77001953125 1747.2850341796875 1741.1400146484375 1735.2099609375 1728.4820556640625 1721.9580078125 1715.761962890625 1710.8349609375 1706.0150146484375 1700.8599853515625 1696.5830078125 1693.8070068359375 1691.7900390625 1689.6650390625 1687.927001953125 1686.001953125 1684.2030029296875 1682.0369873046875 1680.3070068359375 1678.6429443359375 1676.718017578125 1674.623046875 1673.135009765625 1672.010009765625 1670.873046875 1668.864990234375 1666.375 1662.094970703125 1661.0419921875 1656.52197265625 1652.2330322265625 1647.5570068359375 1641.969970703125 1636.4320068359375 1630.3480224609375 1625.56298828125 1621.9449462890625 1618.06005859375 1613.635009765625 1610.3299560546875 1607.1300048828125 1603.2149658203125 1600.0570068359375 1598.218017578125 1596.8800048828125 1593.7099609375 1590.3199462890625 1587.239990234375 1582.6719970703125 1578.7750244140625 1575.06005859375 1570.3599853515625
1461.0350341796875 1463.875 1466.4320068359375 1468.030029296875 1468.6669921875 1471.4580078125 1473.68994140625 1475.905029296875 1477.550048828125 1478.6719970703125 1479.7850341796875 1480.4649658203125 1482.7869873046875 1486.4649658203125 1488.60302734375 1492.4169921875 1495.697998046875 1499.68798828125 1504.35302734375 1507.998046875 1513.1619873046875 1518.2030029296875 1522.491943359375 1526.261962890625 1527.8599853515625 1527.4580078125 1526.0780029296875 1526.885009765625 1529.8299560546875 1529.9820556640625 1535.4219970703125 1539.4749755859375 1545.3299560546875 1545.6669921875 1549.385009765625 1555.4300537109375 1558.2919921875 1562.43798828125 1566.175048828125 1570.655029296875 1575.8199462890625 1582.4100341796875 1587.9549560546875 1594.4949951171875 1598.738037109375 1601.4300537109375 1605.5400390625 1608.386962890625 1610.8399658203125 1613.35498046875 1615.7080078125 1618.001953125 1621.4599609375 1626.60302734375 1632 1635.636962890625 1638.699951171875 1641.8179931640625 1643.97998046875 1647.2449951171875 1651.197998046875 1654.030029296875 1657.748046875 1660.1099853515625 1662.6319580078125 1665.3280029296875 1667.1650390625 1669.5999755859375 1671.56494140625 1673.5799560546875 1675.9100341796875 1678.3599853515625 1680.7779541015625 1683.1519775390625 1685.1929931640625 1687.886962890625 1690.4169921875 1693.5279541015625 1696.508056640625 1699.1949462890625 1702.39697265625 1705.531982421875 1708.988037109375 1712.9320068359375 1716.447998046875 1720.97998046875 1724.925048828125 1728.31298828125 1732.510009765625 1735.864990234375 1741.0679931640625 1745.0150146484375 1749.2550048828125 1753.2969970703125 1757.635009765625 1760.8900146484375 1764.5279541015625 1767.64697265625 1770.72802734375 1774.02197265625 1779.0269775390625 1780.1619873046875 1782.219970703125 1784.6500244140625 1785.8050537109375 1786.843017578125 1785.155029296875 1781.4300537109375 1779.574951171875 1777.75 1776.18994140625 1773.5179443359375 1768.97998046875 1763.510009765625 1757.6500244140625 1752.5250244140625 1747.635009765625 1742.050048828125 1735.968017578125 1729.927001953125 1724.4849853515625 1718.699951171875 1713.52197265625 1708.4150390625 1703.43505859375 1700.3380126953125 1698.8399658203125 1696.2130126953125 1693.7430419921875 1692.302001953125 1690.93798828125 1689.0279541015625 1687.248046875 1685.574951171875 1683.876953125 1682.3179931640625 1680.8599853515625 1679.675048828125 1678.4119873046875 1676.43798828125 1673.7669677734375 1670.6219482421875 1667.613037109375 1663.0400390625 1660.7550048828125 1656.3819580078125 1652.093017578125 1645.9949951171875 1640.3299560546875 1634.6800537109375 1629.3699951171875 1626.123046875 1621.9549560546875 1617.636962890625 1613.5069580078125 1609.324951171875 1607.9320068359375 1605.89697265625 1603.177001953125 1600.489990234375 1597.260009765625 1593.8580322265625 1590.72998046875 1586.4100341796875 1581.93505859375 1578.175048828125 1573.1070556640625
1461.56005859375 1464.0050048828125 1466.2320556640625 1467.8070068359375 1469.2449951171875 1473.0550537109375 1476.031982421875 1478.02197265625 1479.969970703125 1482.094970703125 1483.2869873046875 1485.425048828125 1488.5369873046875 1490.8599853515625 1494.1319580078125 1498.5450439453125 1502.7950439453125 1506.074951171875 1510.27001953125 1512.6500244140625 1515.625 1519.218017578125 1524.656982421875 1530.60498046875 1532.864990234375 1533.8580322265625 1533.125 1533.4549560546875 1535.3380126953125 1536.4169921875 1537.7550048828125 1542.2950439453125 1549.4300537109375 1551.0699462890625 1552.050048828125 1558.3800048828125 1562.0400390625 1565.7750244140625 1569.6800537109375 1575.3280029296875 1579.0799560546875 1583.1929931640625 1588.60302734375 1594.324951171875 1598.3919677734375 1601.5469970703125 1604.114990234375 1607.1820068359375 1610.1199951171875 1612.9949951171875 1615.7320556640625 1618.364990234375 1621.4429931640625 1626.072998046875 1631.6180419921875 1636.43798828125 1639.1700439453125 1642.094970703125 1644.9549560546875 1647.4949951171875 1651.9000244140625 1654.93798828125 1659.218017578125 1661.68505859375 1664.449951171875 1667.2249755859375 1669.7330322265625 1672.6650390625 1674.9100341796875 1677.1669921875 1679.8349609375 1681.77197265625 1684.2750244140625 1686.7679443359375 1689.093017578125 1691.68505859375 1693.614990234375 1696.56005859375 1699.5550537109375 1701.947998046875 1704.7080078125 1708.2080078125 1711.4530029296875 1715.300048828125 1718.7030029296875 1722.550048828125 1726.498046875 1730.302001953125 1734.218017578125 1737.655029296875 1741.7330322265625 1746.2049560546875 1750.1600341796875 1754.7449951171875 1758.7330322265625 1762.5369873046875 1765.9000244140625 1769.123046875 1772.2230224609375 1775.699951171875 1781.2249755859375 1782.3699951171875 1784.175048828125 1786.468017578125 1787.3470458984375 1787.2650146484375 1784.64501953125 1782.18505859375 1781.001953125 1779.18505859375 1777.2750244140625 1774.324951171875 1769.864990234375 1764.218017578125 1758.4219970703125 1752.9649658203125 1748.5880126953125 1744.0450439453125 1738.001953125 1732.636962890625 1727.489990234375 1721.572998046875 1716.68505859375 1711.405029296875 1707.1820068359375 1704.9830322265625 1703.324951171875 1700.9200439453125 1698.6300048828125 1697.5799560546875 1695.886962890625 1694.383056640625 1692.5679931640625 1690.9820556640625 1689.375 1687.781982421875 1686.1700439453125 1685.0450439453125 1683.14697265625 1680.4200439453125 1677.5980224609375 1674.248046875 1670.9200439453125 1667.1600341796875 1664.123046875 1659.156982421875 1655.385009765625 1650.3070068359375 1644.4549560546875 1638.6500244140625 1633.6419677734375 1629.9119873046875 1626.011962890625 1621.8480224609375 1618.0169677734375 1614.1619873046875 1611.3499755859375 1608.1199951171875 1605.4820556640625 1603.9530029296875 1600.593017578125 1596.9549560546875 1593.364990234375 1589.155029296875 1584.4300537109375 1580.2850341796875 1575.6500244140625
1461.2679443359375 1463.824951171875 1466.239990234375 1468.2349853515625 1470.3299560546875 1474.1719970703125 1477.488037109375 1480.0550537109375 1482.3919677734375 1484.6669921875 1486.7669677734375 1488.9219970703125 1491.60302734375 1495.2149658203125 1498.2049560546875 1502.5450439453125 1507.7320556640625 1512.197998046875 1516.052001953125 1519.5400390625 1521.52001953125 1523.6199951171875 1528.0269775390625 1532.4930419921875 1537.1519775390625 1539.8480224609375 1539.6500244140625 1538.7769775390625 1540.64501953125 1542.1700439453125 1543.405029296875 1546.6800537109375 1551.1650390625 1555.39697265625 1554.81005859375 1559.675048828125 1565.2569580078125 1568.6719970703125 1574.5469970703125 1580.6500244140625 1585.2769775390625 1587.6719970703125 1591.1300048828125 1595.6800537109375 1599.218017578125 1602.0250244140625 1603.844970703125 1605.8280029296875 1608.2149658203125 1610.22802734375 1613.364990234375 1616.947998046875 1622.0550537109375 1626.4749755859375 1631.8199462890625 1637.136962890625 1639.9449462890625 1642.8380126953125 1645.6400146484375 1648.9429931640625 1652.876953125 1656.0169677734375 1660.405029296875 1662.8070068359375 1666.1929931640625 1668.991943359375 1671.60498046875 1675.0250244140625 1677.699951171875 1680.155029296875 1683.300048828125 1685.5980224609375 1687.781982421875 1690.0050048828125 1692.0450439453125 1694.9119873046875 1697.3599853515625 1699.885009765625 1702.4599609375 1704.876953125 1707.614990234375 1710.93994140625 1714.2850341796875 1717.89697265625 1721.3399658203125 1724.7430419921875 1728.8399658203125 1733.1099853515625 1735.8280029296875 1739.375 1742.656982421875 1747.125 1751.3349609375 1755.52197265625 1759.748046875 1763.9749755859375 1767.280029296875 1770.636962890625 1774.011962890625 1777.1199951171875 1782.906982421875 1784.31005859375 1786.197998046875 1787.5450439453125 1787.760009765625 1786.8349609375 1786.052001953125 1784.3599853515625 1782.949951171875 1780.989990234375 1778.7030029296875 1775.260009765625 1770.655029296875 1764.4029541015625 1759.2130126953125 1754.18798828125 1749.9449462890625 1745.7099609375 1740.5699462890625 1735.5150146484375 1730.02197265625 1725.4119873046875 1720.302001953125 1715.1619873046875 1712.0050048828125 1709.85302734375 1707.675048828125 1705.56494140625 1703.1719970703125 1701.322998046875 1700.5269775390625 1699.5699462890625 1698.1419677734375 1697.011962890625 1695.5679931640625 1693.6400146484375 1691.864990234375 1689.635009765625 1686.9300537109375 1684.22998046875 1681.2080078125 1677.699951171875 1673.947998046875 1670.550048828125 1665.5999755859375 1663.31298828125 1658.9549560546875 1654.0450439453125 1647.886962890625 1642.219970703125 1637.0550537109375 1632.5799560546875 1628.9649658203125 1625.7149658203125 1621.7449951171875 1617.947998046875 1614.89697265625 1611.64501953125 1609.1929931640625 1605.636962890625 1602.8699951171875 1600.60498046875 1595.219970703125 1590.8179931640625 1585.9599609375 1581.25 1576.5679931640625
1459.3330078125 1462.89697265625 1466.751953125 1469.3699951171875 1471.376953125 1474.4730224609375 1478.125 1481.3580322265625 1484.2569580078125 1486.738037109375 1489.614990234375 1492.2550048828125 1494.737060546875 1497.97998046875 1501.85302734375 1506.47998046875 1511.8349609375 1517.0570068359375 1520.5 1525.0469970703125 1528.218017578125 1530.302001953125 1534.3280029296875 1537.550048828125 1541.4649658203125 1544.0679931640625 1545.77001953125 1543.8299560546875 1544.7449951171875 1546.7249755859375 1548.43798828125 1552.4749755859375 1554.3680419921875 1559.3050537109375 1561.5350341796875 1560.697998046875 1567.218017578125 1572.425048828125 1577.7249755859375 1583.8380126953125 1590.0679931640625 1593.0849609375 1595.449951171875 1598.5450439453125 1600.9169921875 1602.6619873046875 1604.239990234375 1606.31298828125 1608.699951171875 1611.0050048828125 1613.405029296875 1617.72802734375 1623.489990234375 1628.9100341796875 1633.8299560546875 1637.739990234375 1641.1500244140625 1643.68798828125 1646.4949951171875 1649.0350341796875 1653.998046875 1657.3349609375 1661.219970703125 1664.3050537109375 1667.751953125 1670.7320556640625 1673.7349853515625 1676.969970703125 1680.177001953125 1682.7099609375 1685.7469482421875 1688.7769775390625 1691.47998046875 1693.052001953125 1694.7950439453125 1697.7750244140625 1700.248046875 1702.5899658203125 1705.6719970703125 1707.72998046875 1710.531982421875 1713.3299560546875 1716.5550537109375 1720.0450439453125 1723.52197265625 1727.488037109375 1732.011962890625 1734.447998046875 1738.468017578125 1741.969970703125 1744.927001953125 1748.4630126953125 1752.7769775390625 1756.9320068359375 1761.0169677734375 1765.3349609375 1768.7669677734375 1771.97998046875 1775.4219970703125 1778.864990234375 1783.7130126953125 1785.8199462890625 1787.3299560546875 1788.3330078125 1787.93798828125 1788.427001953125 1787.0830078125 1786.06494140625 1784.656982421875 1783.0699462890625 1779.863037109375 1776.699951171875 1772.2130126953125 1766.468017578125 1761.0980224609375 1755.8919677734375 1751.4300537109375 1747.5050048828125 1742.8499755859375 1738.010009765625 1733.8199462890625 1728.3680419921875 1723.1180419921875 1719.6099853515625 1717.093017578125 1714.72998046875 1712.8499755859375 1709.89697265625 1707.875 1706.4949951171875 1705.2650146484375 1704.802001953125 1703.9530029296875 1702.9549560546875 1701.2969970703125 1699.258056640625 1696.633056640625 1694.3580322265625 1691.0450439453125 1687.8900146484375 1684.5899658203125 1680.8699951171875 1677.322998046875 1673.4549560546875 1670.1700439453125 1666.886962890625 1661.4930419921875 1656.3680419921875 1650.905029296875 1645.64501953125 1640.60302734375 1636.675048828125 1632.738037109375 1628.906982421875 1624.8370361328125 1621.22998046875 1618.1429443359375 1614.9000244140625 1611.468017578125 1608.427001953125 1605.0780029296875 1601.06298828125 1598.9119873046875 1592.6199951171875 1587.123046875 1582.1650390625 1577.0899658203125
1455.8199462890625 1459.8299560546875 1464.89501953125 1468.5419921875 1471.2869873046875 1473.885009765625 1477.9000244140625 1481.75 1485.050048828125 1488.375 1491.7750244140625 1494.9930419921875 1497.885009765625 1501.613037109375 1505.175048828125 1509.363037109375 1514.72802734375 1520.89697265625 1524.9200439453125 1528.9200439453125 1533.6719970703125 1536.531982421875 1539.655029296875 1543.0780029296875 1546.030029296875 1548.3699951171875 1549.866943359375 1547.7449951171875 1549.93994140625 1553.18798828125 1553.238037109375 1558.781982421875 1563.1519775390625 1562.302001953125 1567.0980224609375 1566.64697265625 1568.5350341796875 1575.876953125 1580.5699462890625 1585.35302734375 1591.7850341796875 1596.8280029296875 1599.27197265625 1601.373046875 1603.7149658203125 1605.3580322265625 1607.2330322265625 1608.7049560546875 1610.488037109375 1613.241943359375 1615.8570556640625 1619.366943359375 1624.85498046875 1631.447998046875 1635.8900146484375 1639.0050048828125 1642.1650390625 1644.7950439453125 1647.2679443359375 1650.0570068359375 1654.623046875 1658.406982421875 1662.8070068359375 1665.68994140625 1669.1419677734375 1672.405029296875 1675.593017578125 1679.27001953125 1681.81494140625 1684.5880126953125 1687.5699462890625 1690.9150390625 1694.31298828125 1695.9649658203125 1698.011962890625 1700.5450439453125 1703.6949462890625 1706.5419921875 1708.5369873046875 1711.135009765625 1713.5699462890625 1715.822998046875 1718.77001953125 1722.4219970703125 1726.5679931640625 1730.614990234375 1733.5050048828125 1737.9000244140625 1741.697998046875 1744.9000244140625 1748.10498046875 1751.1650390625 1754.8050537109375 1759.1319580078125 1762.7449951171875 1767.0350341796875 1770.5980224609375 1773.52001953125 1776.7320556640625 1780.125 1784.8330078125 1787.3499755859375 1788.43798828125 1789.177001953125 1788.780029296875 1789.363037109375 1788.1400146484375 1787.718017578125 1786.343017578125 1784.6600341796875 1780.8380126953125 1777.375 1773.469970703125 1768.425048828125 1763.761962890625 1758.60498046875 1754.2850341796875 1749.238037109375 1744.2320556640625 1740.31298828125 1736.0970458984375 1730.635009765625 1727.248046875 1724.68798828125 1722.0250244140625 1719.06005859375 1717.322998046875 1714.781982421875 1713.0999755859375 1711.31005859375 1710.574951171875 1710.748046875 1709.60498046875 1708.376953125 1706.4449462890625 1704.280029296875 1701.199951171875 1698.3599853515625 1694.8599853515625 1691.22802734375 1687.491943359375 1683.6500244140625 1679.7320556640625 1676.7850341796875 1672.7850341796875 1668.677001953125 1664.199951171875 1659.2249755859375 1654.02197265625 1648.5050048828125 1643.9449462890625 1639.655029296875 1635.699951171875 1631.5250244140625 1627.6080322265625 1624.2149658203125 1620.7769775390625 1617.488037109375 1614.4019775390625 1610.405029296875 1606.738037109375 1602.7469482421875 1599.18505859375 1593.501953125 1587.85302734375 1583.6319580078125 1578.68505859375
1451.47802734375 1456.2330322265625 1460.7349853515625 1464.1099853515625 1467.5400390625 1472.7030029296875 1476.31298828125 1479.60498046875 1483.175048828125 1488.2919921875 1493.1099853515625 1496.8499755859375 1500.6669921875 1504.2969970703125 1508.156982421875 1512.2130126953125 1518.14697265625 1524.10498046875 1528.780029296875 1533.4429931640625 1537.9649658203125 1541.635009765625 1544.7130126953125 1547.373046875 1550.4169921875 1552.8480224609375 1553.8070068359375 1552.2950439453125 1555.3699951171875 1560.7430419921875 1561.31005859375 1563.2900390625 1568.780029296875 1566.1800537109375 1571.8580322265625 1573.72802734375 1572.491943359375 1576.300048828125 1582.8499755859375 1588.9949951171875 1593.248046875 1599.366943359375 1603.626953125 1604.9530029296875 1606.114990234375 1609.219970703125 1611.56298828125 1613.2130126953125 1614.2900390625 1615.7900390625 1617.9820556640625 1621.9320068359375 1626.6500244140625 1632.625 1637.623046875 1640.4029541015625 1643.489990234375 1645.8900146484375 1648.2569580078125 1651.52197265625 1655.3380126953125 1658.7449951171875 1664.0269775390625 1667.52001953125 1670.614990234375 1674.406982421875 1677.626953125 1680.6419677734375 1683.8599853515625 1686.56494140625 1689.3280029296875 1693.0799560546875 1696.383056640625 1698.0419921875 1700.498046875 1702.9549560546875 1706.31005859375 1709.133056640625 1711.322998046875 1714.177001953125 1716.9549560546875 1719.5469970703125 1722.3480224609375 1725.3599853515625 1729.35302734375 1733.0030517578125 1736.6500244140625 1740.530029296875 1744.074951171875 1747.739990234375 1751.3900146484375 1754.876953125 1758.0679931640625 1761.68505859375 1764.7099609375 1768.593017578125 1772.0550537109375 1775.0050048828125 1778.4219970703125 1781.876953125 1786.751953125 1788.7679443359375 1789.6929931640625 1789.824951171875 1790.1929931640625 1790.8929443359375 1789.7550048828125 1789.0570068359375 1788.0350341796875 1785.8330078125 1782.135009765625 1778.93505859375 1774.64697265625 1770.3330078125 1766.2030029296875 1762.4200439453125 1757.4169921875 1751.2550048828125 1746.343017578125 1742.1619873046875 1737.969970703125 1733.7750244140625 1731.125 1728.9530029296875 1725.843017578125 1723.6929931640625 1721.7750244140625 1720.0350341796875 1718.6199951171875 1717.3349609375 1716.8800048828125 1716.2950439453125 1714.574951171875 1712.6619873046875 1710.5679931640625 1707.8480224609375 1704.949951171875 1701.9429931640625 1698.4730224609375 1694.843017578125 1690.761962890625 1687.22998046875 1682.9949951171875 1679.60498046875 1674.991943359375 1669.9620361328125 1666.322998046875 1661.2919921875 1656.385009765625 1650.77001953125 1646.239990234375 1642.3070068359375 1637.6669921875 1634.0469970703125 1629.9320068359375 1626.135009765625 1623.0050048828125 1619.427001953125 1616.052001953125 1612.635009765625 1608.760009765625 1604.0269775390625 1598.324951171875 1595.14501953125 1588.843017578125 1584.508056640625 1580.2919921875
1450.06298828125 1451.6400146484375 1456.8179931640625 1461.5999755859375 1466.4449462890625 1471.4599609375 1475.8380126953125 1478.9530029296875 1482.675048828125 1487.258056640625 1493.501953125 1498.488037109375 1502.373046875 1506.0169677734375 1510.4200439453125 1515.4630126953125 1521.56298828125 1527.10498046875 1532.175048828125 1537.06298828125 1542.27197265625 1547.011962890625 1550.22802734375 1552.9320068359375 1555.3599853515625 1557.35498046875 1559.375 1559.593017578125 1562.2130126953125 1566.593017578125 1568.8299560546875 1569.636962890625 1573.386962890625 1572.8330078125 1576.31494140625 1580.81298828125 1581.7080078125 1583.7049560546875 1586.947998046875 1588.9320068359375 1593.300048828125 1598.10498046875 1605.2220458984375 1609.8800048828125 1610.6669921875 1612.1219482421875 1613.4320068359375 1615.3179931640625 1617.449951171875 1619.052001953125 1621.02197265625 1623.7149658203125 1627.89697265625 1633.656982421875 1639.0050048828125 1642.800048828125 1645.2679443359375 1647.9300537109375 1650.886962890625 1654.75 1659.1419677734375 1661.2569580078125 1665.9320068359375 1669.93798828125 1673.3050537109375 1676.7349853515625 1680.030029296875 1683.0780029296875 1685.6300048828125 1688.6619873046875 1691.7349853515625 1695.56494140625 1698.5799560546875 1700.93994140625 1703.4580078125 1705.675048828125 1708.9580078125 1712.175048828125 1714.89501953125 1717.4949951171875 1720.3349609375 1723.072998046875 1726.10498046875 1727.77197265625 1732.123046875 1736.574951171875 1740.5250244140625 1743.969970703125 1746.949951171875 1750.8800048828125 1753.738037109375 1757.5369873046875 1761.2249755859375 1764.77001953125 1767.7969970703125 1770.8900146484375 1774.4000244140625 1777.511962890625 1780.93505859375 1784.050048828125 1789.5 1790.447998046875 1791.0699462890625 1791.35498046875 1792.425048828125 1793.0369873046875 1791.947998046875 1791.1800537109375 1789.56494140625 1787.1429443359375 1783.8919677734375 1780.9320068359375 1777.6600341796875 1773.68798828125 1769.488037109375 1765.1929931640625 1760.18994140625 1754.60498046875 1749.81005859375 1745.4449462890625 1741.0150146484375 1738.2869873046875 1735.39501953125 1733.2969970703125 1730.4620361328125 1728.363037109375 1727.4000244140625 1725.530029296875 1724.031982421875 1723.135009765625 1721.97802734375 1721.175048828125 1719.18505859375 1717.0699462890625 1714.4730224609375 1711.4949951171875 1708.5400390625 1705.0699462890625 1702.114990234375 1698.363037109375 1694.6929931640625 1690.6400146484375 1686.593017578125 1682.6949462890625 1678.074951171875 1672.8680419921875 1669.3179931640625 1663.949951171875 1658.6300048828125 1653.0250244140625 1648.9649658203125 1644.2769775390625 1640.2669677734375 1636.3919677734375 1632.4730224609375 1628.52197265625 1624.6099853515625 1620.3570556640625 1617.52001953125 1614.0469970703125 1609.7099609375 1605.4649658203125 1600.5699462890625 1596.3380126953125 1590.8070068359375 1586.5999755859375 1582.258056640625
1446.1650390625 1451.594970703125 1454.6070556640625 1459.6820068359375 1464.5 1469.4749755859375 1474.300048828125 1478.1700439453125 1482.343017578125 1487.406982421875 1493.31005859375 1498.739990234375 1503.8480224609375 1508.1080322265625 1513.126953125 1517.6180419921875 1522.991943359375 1528.5999755859375 1536.510009765625 1539.885009765625 1545.9119873046875 1550.9449462890625 1554.991943359375 1558.241943359375 1560.405029296875 1562.468017578125 1565.5899658203125 1567.375 1569.626953125 1573.447998046875 1575.6700439453125 1576.7149658203125 1578.1099853515625 1579.6519775390625 1581.5830078125 1586.5780029296875 1589.1519775390625 1591.501953125 1594.239990234375 1595.9100341796875 1598.4150390625 1601.5899658203125 1605.488037109375 1610.60498046875 1614.9119873046875 1616.2249755859375 1616.1500244140625 1617.0980224609375 1619.31005859375 1621.6519775390625 1623.85498046875 1626.0880126953125 1629.7550048828125 1634.552001953125 1640.364990234375 1644.4730224609375 1647.258056640625 1650.6500244140625 1653.4200439453125 1656.718017578125 1660.2919921875 1663.125 1667.6519775390625 1671.7249755859375 1675.81005859375 1678.9830322265625 1682.4549560546875 1685.25 1688.10498046875 1691.4000244140625 1694.43798828125 1697.6650390625 1700.8819580078125 1703.625 1707.0469970703125 1709.8900146484375 1712.4830322265625 1715.385009765625 1718.2449951171875 1721.2220458984375 1724.425048828125 1725.93798828125 1729.199951171875 1732.4000244140625 1736.281982421875 1739.89501953125 1743.5880126953125 1747.218017578125 1750.677001953125 1754.0369873046875 1757.1419677734375 1760.2869873046875 1763.93505859375 1767.2080078125 1770.427001953125 1773.3299560546875 1776.886962890625 1780.2679443359375 1783.4169921875 1786.383056640625 1792.3330078125 1792.4749755859375 1793.0849609375 1793.3800048828125 1794.572998046875 1795.251953125 1794.635009765625 1793.126953125 1791.56005859375 1789.6629638671875 1787.239990234375 1784.6820068359375 1781.488037109375 1777.2850341796875 1773.239990234375 1768.489990234375 1763.530029296875 1758.5570068359375 1754.0419921875 1749.0400390625 1745.8470458984375 1742.925048828125 1740.0799560546875 1737.510009765625 1735.4830322265625 1734.136962890625 1732.344970703125 1730.93994140625 1729.31298828125 1728.5780029296875 1726.989990234375 1725.008056640625 1722.949951171875 1720.9930419921875 1718.376953125 1715.0780029296875 1711.93798828125 1708.7530517578125 1705.3179931640625 1702.010009765625 1698.030029296875 1694.0469970703125 1690.4219970703125 1686.2900390625 1681.0799560546875 1675.949951171875 1672.18505859375 1666.4200439453125 1660.9169921875 1655.822998046875 1651.386962890625 1646.873046875 1642.8380126953125 1639.114990234375 1635.011962890625 1630.366943359375 1625.491943359375 1622.4219970703125 1618.9029541015625 1615.2449951171875 1610.9599609375 1606.1619873046875 1601.508056640625 1596.3199462890625 1593.2149658203125 1588.4449462890625 1583.7449951171875
1444.1099853515625 1450.2569580078125 1452.5880126953125 1458.4969482421875 1463.3050537109375 1468.18505859375 1472.5780029296875 1477.2750244140625 1482.3280029296875 1487.373046875 1493.4320068359375 1499.635009765625 1505.5679931640625 1510.8070068359375 1515.761962890625 1520.60302734375 1525.8800048828125 1530.97998046875 1537.6719970703125 1544.9320068359375 1548.9649658203125 1553.800048828125 1557.75 1562.18798828125 1565.300048828125 1567.6929931640625 1570.7969970703125 1573.4300537109375 1576.1669921875 1579.885009765625 1582.385009765625 1583.6300048828125 1584.2650146484375 1586.1500244140625 1585.635009765625 1592.3179931640625 1595.93505859375 1598.218017578125 1601.508056640625 1603.7449951171875 1605.72998046875 1606.2850341796875 1608.5269775390625 1612.4119873046875 1617.300048828125 1619.02001953125 1619.72998046875 1620.491943359375 1621.7130126953125 1623.4599609375 1626.1600341796875 1628.844970703125 1632.001953125 1636.469970703125 1641.8570556640625 1646.10498046875 1649.3929443359375 1653.324951171875 1656.248046875 1660.219970703125 1662.43994140625 1666.093017578125 1670.4599609375 1674.197998046875 1677.9449462890625 1681.574951171875 1685.0899658203125 1687.8800048828125 1691.02197265625 1694.6929931640625 1697.739990234375 1700.613037109375 1703.7969970703125 1706.9169921875 1710.1319580078125 1713.491943359375 1716.001953125 1718.9300537109375 1722.5169677734375 1724.468017578125 1727.1820068359375 1730.1400146484375 1733.488037109375 1735.89501953125 1739.81494140625 1743.2449951171875 1746.6800537109375 1750.5830078125 1753.875 1756.655029296875 1760.135009765625 1763.1929931640625 1766.7330322265625 1769.989990234375 1773.2349853515625 1776.2750244140625 1779.406982421875 1783.1669921875 1786.2430419921875 1790.405029296875 1794.886962890625 1794.488037109375 1795.4219970703125 1796.2750244140625 1796.501953125 1797.0849609375 1796.7430419921875 1795.7449951171875 1794.491943359375 1793.4730224609375 1791.5050048828125 1788.843017578125 1785.6319580078125 1781.468017578125 1776.8919677734375 1772.52197265625 1767.77001953125 1763.10498046875 1758.655029296875 1754.1800537109375 1750.498046875 1747.6280517578125 1745.0350341796875 1743.1500244140625 1741.3299560546875 1739.3599853515625 1737.2950439453125 1735.6500244140625 1734.75 1732.9119873046875 1731.133056640625 1728.883056640625 1726.425048828125 1724.0699462890625 1721.510009765625 1718.248046875 1715.2320556640625 1712.2349853515625 1708.7130126953125 1705.3050537109375 1701.5899658203125 1696.748046875 1692.2230224609375 1687.6500244140625 1683.406982421875 1678.5799560546875 1673.906982421875 1669.0550537109375 1663.6400146484375 1658.4200439453125 1653.5570068359375 1649.4730224609375 1645.3050537109375 1641.655029296875 1636.886962890625 1631.9749755859375 1627.6719970703125 1624.0570068359375 1620.0799560546875 1616.4150390625 1611.4300537109375 1607.405029296875 1602.5550537109375 1598.113037109375 1594.1070556640625 1589.5 1585.22998046875
1442.531982421875 1447.6099853515625 1453.866943359375 1457.1400146484375 1463.2869873046875 1468.574951171875 1473.927001953125 1478.7850341796875 1483.64501953125 1488.5 1493.656982421875 1499.873046875 1507.155029296875 1513.31298828125 1518.2969970703125 1523.0250244140625 1528.5999755859375 1533.552001953125 1539.2330322265625 1548.4150390625 1554.2080078125 1556.6600341796875 1560.4649658203125 1565.43505859375 1569.5469970703125 1572.4100341796875 1575.7099609375 1578.25 1581.489990234375 1585.530029296875 1588.56005859375 1590.2130126953125 1591.219970703125 1591.844970703125 1590.4530029296875 1597.1949462890625 1601.822998046875 1606.366943359375 1607.094970703125 1609.1600341796875 1610.366943359375 1612.4549560546875 1614.614990234375 1617.238037109375 1619.9100341796875 1621.8199462890625 1623.501953125 1624.3299560546875 1625.6719970703125 1627.251953125 1629.876953125 1632.0799560546875 1634.6650390625 1638.93798828125 1643.9820556640625 1648.4830322265625 1652.7669677734375 1656.60302734375 1660.31005859375 1662.77197265625 1666.3699951171875 1669.625 1673.3050537109375 1676.9849853515625 1680.614990234375 1683.8800048828125 1687.39501953125 1690.677001953125 1693.876953125 1697.3499755859375 1700.97998046875 1704.116943359375 1707.1619873046875 1709.8719482421875 1713.094970703125 1716.7349853515625 1719.22998046875 1722.9580078125 1723.550048828125 1729.094970703125 1730.530029296875 1733.9000244140625 1736.89697265625 1739.8380126953125 1743.0369873046875 1746.56494140625 1750.197998046875 1753.7249755859375 1756.239990234375 1758.760009765625 1762.6820068359375 1766.116943359375 1769.8330078125 1773 1776.175048828125 1779.5400390625 1782.875 1785.9949951171875 1789.927001953125 1794.1700439453125 1797.2249755859375 1796.677001953125 1798.06298828125 1799.22802734375 1799.4630126953125 1799.594970703125 1800.0780029296875 1800 1798.9119873046875 1797.116943359375 1795.2950439453125 1792.7099609375 1789.2080078125 1785.218017578125 1781.1099853515625 1776.9000244140625 1772.7750244140625 1768.18994140625 1763.4219970703125 1759.156982421875 1755.6820068359375 1752.56494140625 1750.5999755859375 1748.7099609375 1747.1949462890625 1745.758056640625 1743.81005859375 1741.905029296875 1740.1669921875 1737.81005859375 1735.2149658203125 1732.218017578125 1729.3900146484375 1727.4820556640625 1724.998046875 1721.7850341796875 1718.0780029296875 1715.123046875 1711.3919677734375 1707.7330322265625 1703.6650390625 1699.447998046875 1694.97802734375 1690.280029296875 1686.0550537109375 1680.7099609375 1675.3199462890625 1671.0250244140625 1666.2030029296875 1660.635009765625 1656.2950439453125 1651.8199462890625 1647.4300537109375 1643.447998046875 1638.56005859375 1633.8050537109375 1629.2650146484375 1625.5369873046875 1621.6669921875 1617.2230224609375 1612.5369873046875 1608.0250244140625 1603.4949951171875 1599.375 1594.4119873046875 1591.238037109375 1586.39697265625
1442.614990234375 1447.739990234375 1454.8380126953125 1456.2750244140625 1462.8070068359375 1468.89697265625 1474.6429443359375 1480.248046875 1485.5780029296875 1490.6319580078125 1495.623046875 1501.0350341796875 1508.613037109375 1515.9169921875 1521.0679931640625 1525.7650146484375 1531.427001953125 1536.6080322265625 1541.85302734375 1549.258056640625 1556.2850341796875 1560.5570068359375 1564.0419921875 1567.8480224609375 1573.5400390625 1577.781982421875 1581.133056640625 1583.8929443359375 1587.125 1590.8699951171875 1593.988037109375 1596.1600341796875 1597.5419921875 1597.9530029296875 1597.843017578125 1600.635009765625 1607.699951171875 1610.636962890625 1614.2249755859375 1616.6300048828125 1618.302001953125 1620.5880126953125 1621.675048828125 1623.613037109375 1624.56005859375 1626.175048828125 1628.175048828125 1628.885009765625 1630.5400390625 1632.85302734375 1635.0550537109375 1637.3280029296875 1637.5880126953125 1641.989990234375 1646.9429931640625 1651.68994140625 1656.218017578125 1660.4830322265625 1664.800048828125 1667.0830078125 1670.469970703125 1673.822998046875 1676.9969482421875 1680.8050537109375 1683.77197265625 1686.7130126953125 1690.5570068359375 1693.9449462890625 1696.843017578125 1700.0799560546875 1703.97802734375 1707.4720458984375 1710.3380126953125 1713.4599609375 1716.677001953125 1720.5450439453125 1722.0169677734375 1725.27197265625 1728.949951171875 1732.0250244140625 1734.322998046875 1737.3399658203125 1740.3919677734375 1743.0350341796875 1746.1099853515625 1749.780029296875 1753.2750244140625 1756.5179443359375 1759.52001953125 1762.300048828125 1765.7330322265625 1769.7130126953125 1773.3370361328125 1777.06005859375 1780.2249755859375 1783.5419921875 1786.9429931640625 1790.2249755859375 1793.4429931640625 1797.238037109375 1799.9219970703125 1799.0999755859375 1800.697998046875 1802.2900390625 1803.3470458984375 1803.7850341796875 1804.008056640625 1803.373046875 1802.137939453125 1800.8280029296875 1799.4320068359375 1797.0250244140625 1793.8499755859375 1790.18505859375 1786.011962890625 1781.5450439453125 1777.1820068359375 1772.906982421875 1768.4849853515625 1764.550048828125 1761.0250244140625 1758.594970703125 1756.43994140625 1755.0169677734375 1753.6719970703125 1751.7650146484375 1749.989990234375 1747.550048828125 1744.864990234375 1741.866943359375 1738.9000244140625 1736.3070068359375 1733.3580322265625 1730.6400146484375 1728.008056640625 1724.81298828125 1721.5780029296875 1718.0179443359375 1713.989990234375 1710.4429931640625 1706.699951171875 1702.2550048828125 1697.52197265625 1692.9429931640625 1688.25 1683.300048828125 1677.498046875 1673.8050537109375 1668.574951171875 1663.218017578125 1658.655029296875 1653.93505859375 1649.7449951171875 1645.2950439453125 1640.7149658203125 1635.5799560546875 1631.2550048828125 1627.074951171875 1622.52001953125 1618.8050537109375 1614.2149658203125 1609.8330078125 1604.9429931640625 1600.251953125 1596.113037109375 1591.718017578125 1588.60498046875
1443.251953125 1448.7900390625 1455.6429443359375 1457.468017578125 1463.2349853515625 1469.0250244140625 1474.9429931640625 1480.5419921875 1486.3599853515625 1491.863037109375 1497.780029296875 1502.8349609375 1509.2080078125 1516.77197265625 1522.6429443359375 1528.35498046875 1534.156982421875 1539.905029296875 1545.239990234375 1551.8900146484375 1558.052001953125 1564.47802734375 1569.574951171875 1572.802001953125 1579.22802734375 1582.4849853515625 1585.6669921875 1588.7669677734375 1592.1669921875 1596.1519775390625 1599.488037109375 1601.427001953125 1602.93505859375 1603.56298828125 1604.18505859375 1606.6929931640625 1610.3499755859375 1617.1099853515625 1620.2030029296875 1622.5369873046875 1624.239990234375 1625.738037109375 1627.6600341796875 1628.3929443359375 1629.3919677734375 1631.14697265625 1633.383056640625 1634.802001953125 1636.31005859375 1638.655029296875 1640.633056640625 1642.5799560546875 1643.5250244140625 1645.2149658203125 1650.25 1655.531982421875 1659.947998046875 1665.2080078125 1667.281982421875 1671.386962890625 1674.3299560546875 1677.4119873046875 1680.3380126953125 1684.10498046875 1687.5269775390625 1690.1429443359375 1693.7030029296875 1697.175048828125 1700.43798828125 1703.7469482421875 1707.0450439453125 1710.5400390625 1713.699951171875 1717.248046875 1720.375 1723.199951171875 1726.8299560546875 1728.863037109375 1730.969970703125 1734.3199462890625 1737.8929443359375 1740.06005859375 1743.4200439453125 1746.008056640625 1749.280029296875 1752.8349609375 1756.0999755859375 1759.405029296875 1762.4429931640625 1765.7130126953125 1769.468017578125 1773.3199462890625 1776.7869873046875 1780.344970703125 1783.89501953125 1786.9429931640625 1790.06494140625 1793.4749755859375 1796.7099609375 1800.156982421875 1802.489990234375 1802.0050048828125 1803.81298828125 1805.93798828125 1806.906982421875 1807.35498046875 1807.18994140625 1806.5350341796875 1805.5830078125 1804.261962890625 1802.488037109375 1800.39501953125 1797.6700439453125 1794.3699951171875 1790.22998046875 1786.0469970703125 1781.9100341796875 1777.93798828125 1773.991943359375 1770.1619873046875 1766.8330078125 1764.47998046875 1762.52197265625 1760.344970703125 1758.7550048828125 1756.9150390625 1754.386962890625 1752.1650390625 1749.594970703125 1747.06494140625 1743.7669677734375 1740.4320068359375 1737.0250244140625 1734.3330078125 1730.5150146484375 1727.4820556640625 1723.7550048828125 1720.302001953125 1717.0999755859375 1713.1719970703125 1709.135009765625 1704.3699951171875 1699.656982421875 1694.64697265625 1689.614990234375 1685.489990234375 1680.5269775390625 1676.5050048828125 1670.8299560546875 1666.3399658203125 1661.8399658203125 1656.925048828125 1652.7969970703125 1648.3470458984375 1644.1929931640625 1639.5450439453125 1634.8050537109375 1630.1500244140625 1625.1500244140625 1620.864990234375 1616.1650390625 1611.636962890625 1606.373046875 1602.1300048828125 1597.969970703125 1593.2080078125 1589.7149658203125
1443.4599609375 1448.4949951171875 1456.2669677734375 1458.8299560546875 1464.56494140625 1469.4429931640625 1474.199951171875 1480.0269775390625 1485.3800048828125 1491.760009765625 1498.697998046875 1504.3299560546875 1510.0269775390625 1516.761962890625 1524.27197265625 1529.7320556640625 1535.5030517578125 1542.77001953125 1548.251953125 1556.4580078125 1562.10498046875 1568.675048828125 1575.18994140625 1577.2469482421875 1583.1070556640625 1587.175048828125 1590.43994140625 1593.6949462890625 1596.7449951171875 1600.511962890625 1603.802001953125 1607.0150146484375 1609.31494140625 1608.93994140625 1608.677001953125 1609.7099609375 1613.281982421875 1620.81494140625 1625.2900390625 1627.739990234375 1629.3399658203125 1631.1519775390625 1632.385009765625 1633.4200439453125 1634.761962890625 1636.2230224609375 1637.873046875 1640.2530517578125 1642.501953125 1644.343017578125 1646.10302734375 1648.574951171875 1649.9169921875 1649.9599609375 1653.5450439453125 1659.35498046875 1663.9630126953125 1667.6719970703125 1671.8299560546875 1675.405029296875 1678.4599609375 1681.281982421875 1684.0999755859375 1687.8929443359375 1691.8599853515625 1694.623046875 1697.4019775390625 1700.89501953125 1704.280029296875 1707.31005859375 1710.8699951171875 1714.4219970703125 1718.4320068359375 1719.6650390625 1723.4949951171875 1726.81005859375 1730.218017578125 1732.199951171875 1733.6949462890625 1736.8599853515625 1740.780029296875 1743.9649658203125 1746.9429931640625 1750.011962890625 1752.6180419921875 1755.887939453125 1759.68505859375 1763.06494140625 1766.1650390625 1769.9000244140625 1773.2900390625 1777.10498046875 1780.501953125 1783.8599853515625 1787.113037109375 1790.52001953125 1793.35302734375 1796.5880126953125 1799.8280029296875 1804.2449951171875 1804.9820556640625 1805.248046875 1807.511962890625 1809.373046875 1810.613037109375 1810.886962890625 1810.68798828125 1810.2650146484375 1808.9100341796875 1807.2950439453125 1805.635009765625 1803.5269775390625 1800.8699951171875 1797.8330078125 1794.376953125 1790.405029296875 1786.9169921875 1783.5830078125 1779.7900390625 1776.385009765625 1773.718017578125 1770.77001953125 1768.5450439453125 1765.925048828125 1763.760009765625 1761.498046875 1758.927001953125 1756.491943359375 1754.030029296875 1751.0169677734375 1747.8599853515625 1744.366943359375 1741.113037109375 1737.4530029296875 1734.0899658203125 1730.344970703125 1726.623046875 1722.6600341796875 1718.9749755859375 1715.093017578125 1711.0450439453125 1706.875 1701.9449462890625 1696.9429931640625 1692.0849609375 1687.614990234375 1683.2750244140625 1679.281982421875 1674.3800048828125 1669.60498046875 1664.6949462890625 1660.0169677734375 1655.530029296875 1651.27197265625 1647.5169677734375 1642.822998046875 1637.5419921875 1632.050048828125 1627.1949462890625 1622.261962890625 1617.114990234375 1612.468017578125 1607.68994140625 1602.9119873046875 1598.7449951171875 1594.4749755859375 1589.3199462890625
1443.947998046875 1448.72802734375 1456.008056640625 1458.5250244140625 1465.155029296875 1470.364990234375 1475.8699951171875 1481.655029296875 1487.8699951171875 1493.800048828125 1500.2149658203125 1507.5980224609375 1512.281982421875 1518.3399658203125 1524.258056640625 1530.510009765625 1536.1619873046875 1543.3199462890625 1551.030029296875 1557.6719970703125 1564.1929931640625 1570.927001953125 1576.572998046875 1581.925048828125 1586.2900390625 1591.35302734375 1595.133056640625 1598.364990234375 1601.7080078125 1605.343017578125 1609.2679443359375 1610.3800048828125 1613.9580078125 1615.5550537109375 1616.030029296875 1616.3050537109375 1620.9749755859375 1624.68505859375 1630.2249755859375 1632.989990234375 1635.156982421875 1636.7650146484375 1637.4749755859375 1638.6500244140625 1639.9649658203125 1641.0999755859375 1643.1219482421875 1644.155029296875 1647.3380126953125 1649.7550048828125 1651.8719482421875 1654.31494140625 1656.06005859375 1656.77197265625 1658.1400146484375 1663.6519775390625 1669.491943359375 1671.531982421875 1676.60302734375 1679.531982421875 1682.7130126953125 1685.85498046875 1688.5999755859375 1691.8199462890625 1695.593017578125 1698.906982421875 1701.552001953125 1705.5069580078125 1708.2850341796875 1711.4830322265625 1716.0469970703125 1717.863037109375 1721.43505859375 1724.06494140625 1727.614990234375 1730.739990234375 1733.9849853515625 1735.6519775390625 1737.3929443359375 1740.3800048828125 1744.0830078125 1747.4549560546875 1750.0450439453125 1753.5780029296875 1756.925048828125 1759.8680419921875 1762.9949951171875 1766.625 1770.1519775390625 1773.655029296875 1776.925048828125 1780.4720458984375 1783.9749755859375 1787.302001953125 1790.552001953125 1793.6519775390625 1796.7750244140625 1800.113037109375 1802.9150390625 1807.7080078125 1807.802001953125 1808.8680419921875 1810.97998046875 1812.7750244140625 1813.9100341796875 1814.1199951171875 1814.2149658203125 1813.531982421875 1812.251953125 1810.8699951171875 1809.050048828125 1807.0069580078125 1804.998046875 1802.5150146484375 1799.3380126953125 1795.85498046875 1792.6669921875 1789.18505859375 1785.947998046875 1782.675048828125 1779.8070068359375 1776.81298828125 1774.376953125 1771.7080078125 1769.008056640625 1766.510009765625 1763.5469970703125 1761.0880126953125 1758.2679443359375 1754.491943359375 1751.4949951171875 1748.3330078125 1744.9630126953125 1740.949951171875 1736.68798828125 1733.241943359375 1729.2130126953125 1725.1280517578125 1721.2900390625 1717.9200439453125 1713.385009765625 1708.77001953125 1704.4580078125 1699.614990234375 1694.81494140625 1689.89501953125 1685.343017578125 1680.843017578125 1677.135009765625 1672.4580078125 1667.511962890625 1663.2330322265625 1658.06494140625 1653.7349853515625 1649.3399658203125 1643.9119873046875 1638.8919677734375 1633.6800537109375 1628.781982421875 1623.405029296875 1618.39697265625 1614.0849609375 1609.10498046875 1604.2330322265625 1599.8599853515625 1595.6319580078125 1591.4530029296875
1444.7750244140625 1450.18798828125 1456.14697265625 1458.43994140625 1465.0469970703125 1470.93994140625 1477.60498046875 1483.6600341796875 1489.0350341796875 1495.886962890625 1501.5250244140625 1508.6600341796875 1515.405029296875 1521.3280029296875 1526.52001953125 1531.93994140625 1537.8299560546875 1543.4530029296875 1549.5679931640625 1555.9549560546875 1561.9649658203125 1568.4530029296875 1574.3900146484375 1581.0469970703125 1589.498046875 1595.7850341796875 1600.10302734375 1603.675048828125 1607.56494140625 1610.175048828125 1612.9449462890625 1616.2550048828125 1619.2080078125 1622.1070556640625 1621.81005859375 1621.9849853515625 1625.4530029296875 1631.781982421875 1635.741943359375 1638.39501953125 1640.56298828125 1642.10302734375 1643.677001953125 1644.1929931640625 1645.4119873046875 1646.383056640625 1648.2349853515625 1649.988037109375 1652.3480224609375 1654.625 1656.8070068359375 1659.2869873046875 1661.633056640625 1663.3380126953125 1663.3199462890625 1668 1671.927001953125 1676.7969970703125 1680.925048828125 1684.376953125 1687.2030029296875 1690.656982421875 1693.4749755859375 1696.43798828125 1699.52197265625 1702.93798828125 1706.1500244140625 1709.616943359375 1712.9429931640625 1716.322998046875 1718.7080078125 1722.5450439453125 1725.68505859375 1727.991943359375 1731.155029296875 1734.5799560546875 1737.31494140625 1739.373046875 1741.39697265625 1744.3330078125 1748.0369873046875 1751.113037109375 1754.123046875 1756.9549560546875 1760.0830078125 1762.9300537109375 1766.2900390625 1770.0419921875 1774.0050048828125 1777.4830322265625 1781.0469970703125 1784.3330078125 1787.498046875 1790.616943359375 1793.8929443359375 1797.011962890625 1800.2099609375 1803.18994140625 1806.4830322265625 1810.4169921875 1810.7220458984375 1812.593017578125 1814.5830078125 1816.011962890625 1816.9320068359375 1817.64501953125 1817.3399658203125 1816.5679931640625 1816.0679931640625 1814.89697265625 1813.4749755859375 1811.3399658203125 1809.4649658203125 1807.093017578125 1804.113037109375 1800.75 1797.656982421875 1794.2900390625 1790.781982421875 1787.8919677734375 1784.780029296875 1781.8599853515625 1779.4449462890625 1776.2330322265625 1773.8349609375 1771.322998046875 1768.199951171875 1764.9000244140625 1761.655029296875 1758.2900390625 1754.843017578125 1751.9200439453125 1748.4849853515625 1744.0369873046875 1739.5400390625 1735.863037109375 1731.9849853515625 1727.7149658203125 1724.0980224609375 1720.302001953125 1715.93505859375 1711.5899658203125 1706.873046875 1701.7149658203125 1697.011962890625 1691.866943359375 1687.697998046875 1682.5880126953125 1679.6800537109375 1675.1929931640625 1670.0469970703125 1665.030029296875 1660.43798828125 1655.68798828125 1650.6700439453125 1645.3470458984375 1640.501953125 1635.5150146484375 1630.35498046875 1625.4630126953125 1620.7969970703125 1616.1199951171875 1611.3050537109375 1605.864990234375 1601.5400390625 1596.875 1592.925048828125
1445.1669921875 1450.6800537109375 1455.6070556640625 1458.7750244140625 1465.8599853515625 1472.258056640625 1479.0679931640625 1484.751953125 1490.322998046875 1496.876953125 1503.06494140625 1509.5050048828125 1516.3699951171875 1523.113037109375 1527.906982421875 1533.738037109375 1538.10498046875 1543.9580078125 1549.64501953125 1557.3699951171875 1564.8819580078125 1571.875 1577.531982421875 1583.1600341796875 1591.989990234375 1599.258056640625 1604.5250244140625 1609.876953125 1611.3199462890625 1616.43994140625 1619.60498046875 1621.68798828125 1624.7130126953125 1627.405029296875 1628.4449462890625 1628.2550048828125 1630.7220458984375 1637.2080078125 1641.3199462890625 1643.77197265625 1645.9949951171875 1648.133056640625 1649.6400146484375 1649.9300537109375 1650.7080078125 1652.322998046875 1653.343017578125 1655.155029296875 1657.7320556640625 1659.93994140625 1661.9849853515625 1664.0179443359375 1666.7430419921875 1668.656982421875 1669.6429443359375 1671.498046875 1675.751953125 1681 1685.0780029296875 1688.366943359375 1691.60498046875 1694.9219970703125 1697.656982421875 1700.60498046875 1703.3349609375 1707.3280029296875 1710.47802734375 1714.427001953125 1716.0400390625 1720.156982421875 1722.9599609375 1725.5269775390625 1728.4300537109375 1731.43505859375 1734.9169921875 1738.0799560546875 1740.6519775390625 1743.093017578125 1745.7349853515625 1748.9599609375 1752.364990234375 1755.322998046875 1757.9300537109375 1760.2919921875 1764.0150146484375 1766.77001953125 1770.6199951171875 1774.572998046875 1778.001953125 1781.364990234375 1784.56298828125 1788.156982421875 1791.2130126953125 1794.18798828125 1797.5550537109375 1800.8380126953125 1803.7330322265625 1806.5350341796875 1809.3800048828125 1813.1500244140625 1813.93994140625 1816.2149658203125 1818.0899658203125 1819.4429931640625 1820.136962890625 1820.7750244140625 1821.39501953125 1821.1669921875 1820.001953125 1819.0830078125 1817.7130126953125 1815.7650146484375 1813.68505859375 1811.155029296875 1808.3919677734375 1804.875 1801.9630126953125 1798.748046875 1795.468017578125 1792.7230224609375 1789.6700439453125 1786.6070556640625 1783.9100341796875 1781.0400390625 1778.4949951171875 1775.613037109375 1772.4599609375 1769.219970703125 1765.4019775390625 1761.550048828125 1758.613037109375 1755.56005859375 1751.7349853515625 1747.7220458984375 1743.10498046875 1739.125 1734.7650146484375 1730.6820068359375 1726.5179443359375 1722.258056640625 1717.675048828125 1713.343017578125 1708.89697265625 1704.3399658203125 1699.06005859375 1694.633056640625 1690.5830078125 1686.0780029296875 1682.5279541015625 1676.6820068359375 1672.18798828125 1667.7049560546875 1662.626953125 1658.18798828125 1653.199951171875 1648.5980224609375 1643.18798828125 1638.1719970703125 1633.0550537109375 1627.947998046875 1623.2650146484375 1618.2080078125 1613.302001953125 1607.925048828125 1603.2550048828125 1598.52001953125 1593.925048828125
1447.2249755859375 1451.998046875 1457.968017578125 1460.4849853515625 1466.136962890625 1471.3480224609375 1476.9599609375 1487.1800537109375 1492.9949951171875 1499.719970703125 1505.1700439453125 1510.885009765625 1517 1522.9530029296875 1529.0400390625 1533.5780029296875 1540.39697265625 1545.3800048828125 1552.3499755859375 1559.613037109375 1566.8330078125 1574.4019775390625 1581.405029296875 1588.343017578125 1595.5150146484375 1602.927001953125 1609.7149658203125 1612.863037109375 1618.248046875 1621.7769775390625 1624.531982421875 1627.2080078125 1629.85498046875 1633.1319580078125 1634.9320068359375 1635.625 1636.9429931640625 1642.406982421875 1646.177001953125 1649.093017578125 1651.406982421875 1653.748046875 1654.9530029296875 1655.5999755859375 1656.511962890625 1658.156982421875 1659.5 1660.885009765625 1663.2149658203125 1665.02197265625 1667.239990234375 1669.5400390625 1671.969970703125 1674.113037109375 1673.4849853515625 1675.844970703125 1678.489990234375 1684.113037109375 1688.3580322265625 1692.3900146484375 1695.5550537109375 1699.011962890625 1702.02001953125 1704.8349609375 1708.27197265625 1712.3929443359375 1714.2149658203125 1717.8280029296875 1720.780029296875 1724.008056640625 1726.3580322265625 1728.9300537109375 1731.9749755859375 1735.1300048828125 1738.7650146484375 1742.0830078125 1744.4630126953125 1746.947998046875 1750.2049560546875 1753.2969970703125 1756.2249755859375 1759.0999755859375 1761.9830322265625 1764.7650146484375 1767.9580078125 1771.0169677734375 1774.675048828125 1778.2550048828125 1781.447998046875 1784.7950439453125 1787.780029296875 1791.2850341796875 1794.3280029296875 1797.594970703125 1801.0269775390625 1804.281982421875 1807.4100341796875 1810.281982421875 1813.675048828125 1815.8399658203125 1817.6219482421875 1819.68798828125 1821.5899658203125 1823.072998046875 1823.9749755859375 1824.8699951171875 1825.5699462890625 1826.031982421875 1825.4449462890625 1823.93994140625 1822.14697265625 1820.4749755859375 1818.344970703125 1815.9599609375 1812.85498046875 1809.866943359375 1806.675048828125 1803.219970703125 1800.18505859375 1797.512939453125 1794.1099853515625 1790.9830322265625 1788.1700439453125 1785.7030029296875 1783.0469970703125 1779.6099853515625 1776.0980224609375 1772.7030029296875 1769.1199951171875 1765.0679931640625 1761.4549560546875 1758.4820556640625 1754.4300537109375 1750.113037109375 1745.7320556640625 1741.7149658203125 1737.248046875 1732.89697265625 1728.8050537109375 1724.197998046875 1719.7919921875 1715.427001953125 1711.1929931640625 1706.4820556640625 1701.6669921875 1697.06005859375 1693.322998046875 1688.9300537109375 1684.93505859375 1679.2430419921875 1674.927001953125 1670.261962890625 1665.6650390625 1660.8050537109375 1655.4730224609375 1650.9449462890625 1645.9300537109375 1641.0999755859375 1635.738037109375 1630.552001953125 1625.3800048828125 1620.6669921875 1615.06005859375 1609.5369873046875 1604.72802734375 1599.761962890625 1594.9749755859375
